ncols          177
nrows          45
xllcorner      1089342.73791
yllcorner      3781147.27388
cellsize       27.719568
NODATA_value   0.000000
0.000000 0.000000 0.000000 0.000000 1583.793945 1590.184570 1588.454224 1585.401245 1582.803345 1577.252563 1572.544312 1569.330078 1565.090576 1554.162842 1538.041260 1522.394043 1512.120361 1505.875732 1497.786377 1490.388062 1483.697388 1462.631592 1452.132812 1439.152100 1445.312866 1430.287109 1416.756104 1409.399780 1404.595215 1397.474731 1389.990234 1385.630737 1381.923584 1379.596558 1383.752930 1384.840698 1384.806152 1385.527954 1386.191772 1385.668091 1386.118530 1387.552246 1379.935425 1373.045410 1364.752441 1362.530884 1364.489380 1365.789307 1363.317627 1363.414429 1360.678223 1354.821411 1352.942871 1356.860107 1361.041992 1361.028076 1359.171631 1359.789429 1361.589966 1361.572998 1360.485596 1380.149902 1380.580200 1371.903198 1362.089722 1352.563477 1343.029053 667.656921 665.170166 1325.570190 1320.683350 1318.572876 1322.655518 1330.018433 1335.056030 1336.860596 1328.055420 1317.193359 1308.473511 1302.372437 1300.330811 1300.952759 1299.933228 1298.581055 1299.083374 1299.077026 1298.045654 1298.343018 1296.474121 1293.652588 1295.921631 1302.981934 1310.268799 1315.910645 1319.994873 1326.009277 1323.810425 1325.047729 1324.788940 1325.934570 1326.660889 1327.281860 1334.993164 1339.667358 1342.458862 1342.626343 1341.748901 1346.398682 1355.819946 1362.171021 1366.044678 1370.491821 1373.569824 1350.782593 1350.000122 1346.722290 1336.715576 1321.773682 1304.596313 1287.277954 1274.211914 1266.733887 1259.204102 1249.802124 1242.947388 1239.715820 1239.778076 1243.018799 1246.379517 1240.371216 1222.681763 1201.361084 1191.331787 1193.570923 1201.866333 1210.185669 1212.577148 1210.937012 1210.345459 1210.267334 1209.627197 1210.367920 1207.690674 1202.804321 1194.205688 1180.386353 1166.987915 1155.828735 1142.737305 1147.043579 1133.309937 1116.378174 1102.734497 1096.526489 1096.588623 1103.638428 1121.945679 1133.709717 1147.407715 1158.131836 1163.691406 1163.090210 1161.892700 1166.951416 1173.093628 1177.017334 1182.981445 1212.606323 1229.520508 1265.899048 1272.746460 1277.563721 0.000000 0.000000 0.000000 0.000000 0.000000
0.000000 0.000000 0.000000 0.000000 1565.787231 1578.176270 1584.423706 1585.406494 1582.803345 1586.541870 1584.539917 1584.090576 1580.225952 1566.997803 1548.884399 1535.251099 1527.663940 1522.563232 1516.902222 1511.601929 1505.199707 1494.256226 1472.484253 1459.202271 1445.312866 1430.287109 1439.467529 1427.290161 1415.019043 1403.757080 1395.920288 1390.295776 1384.093750 1378.153442 1375.375244 1377.453125 1377.984253 1379.178589 1378.678345 1377.763916 1379.021851 1380.763672 1379.935425 1373.045410 1358.961548 1355.849365 1355.147339 1354.290161 1353.691895 1356.816162 1355.568115 1349.740723 1345.843872 1348.152100 1353.010010 1353.949707 1351.950073 1353.112061 1356.192261 1357.352661 1360.485596 1370.037720 1384.080078 1383.887817 1379.287598 1370.215942 1358.468628 1345.962402 1335.456543 1326.197388 1317.932861 1312.028442 1311.573364 1316.247070 1321.085083 1326.046265 662.954773 658.805908 1308.473511 1302.372437 1296.095337 1293.052612 1290.181274 1289.665405 1290.452271 1288.936157 1285.919800 1284.075317 1283.607544 1286.687012 1289.284668 1293.015259 1297.474121 1301.379028 1305.955322 1315.379883 1323.810425 1325.047729 1311.247925 1311.797363 1312.614258 1313.891724 1318.335449 1330.373047 1331.385864 1330.501953 1326.892212 1325.712280 1331.169800 1336.883179 1341.104004 1346.220825 1350.005127 1350.782593 1350.000122 1334.610474 1330.845093 1322.752563 1312.157104 1298.121216 1286.291748 1279.001099 1269.122925 1259.745239 1258.607178 1260.717651 1263.346313 1267.143311 1267.628418 1264.269409 1225.012329 1201.361084 1191.331787 1190.605835 1201.711182 1213.841919 1222.303589 1226.797729 1228.945190 1228.057617 1227.170776 1229.768555 1231.730469 1224.945557 1215.368164 1203.367554 1192.714844 1179.331055 1161.681885 1147.043579 1133.309937 1118.737671 1102.902466 1096.571777 1094.718140 1096.601929 1101.829956 1117.088135 1126.354004 1134.501587 1139.648071 1140.485474 1143.235229 1154.422729 1168.598267 1181.159912 1195.811035 1212.606323 1229.520508 1281.244751 1305.421875 1307.118286 0.000000 0.000000 0.000000 0.000000 0.000000
0.000000 0.000000 0.000000 0.000000 1536.920654 1555.306152 1568.095459 1577.938477 1586.548584 1586.541870 1595.364136 1595.203125 1591.628174 1581.091309 1567.029175 1556.266602 1549.742798 1547.063721 1544.664673 1538.625854 1527.464722 1512.008301 1485.043701 1474.468628 1464.723755 1452.589844 1439.467529 1427.290161 1433.714355 1422.317505 1415.097046 1406.858521 1396.863892 1387.323242 1379.271484 1374.681274 1371.240967 1371.901245 1371.976807 1371.745239 1372.586304 1373.810669 1372.451782 1366.040771 1358.961548 1355.849365 1348.265137 1345.602051 1343.696655 1347.351685 1347.253906 1342.170654 1338.294067 1339.812988 1344.371826 1346.738281 1346.419800 1348.018799 1350.202271 1351.765015 1356.308105 1366.055054 1377.857666 1383.887817 1381.467773 1378.693726 1371.128662 1358.096924 1343.142090 1329.308105 1317.218018 1306.815918 1300.030762 1300.818237 1304.739746 1308.337769 1314.444946 1318.980103 1311.325439 1301.708496 1296.095337 1293.052612 1281.966064 1282.203369 1282.051392 639.729736 638.098389 1273.550293 1273.299316 1277.776733 1284.719727 1284.254517 1286.513062 1292.201294 1299.598267 1308.913208 1314.875366 1313.273315 1311.247925 1295.090088 1296.819824 1299.865234 1306.338867 1315.369385 1321.697021 1317.207153 1310.510254 1305.729004 1308.153442 1313.715942 1317.312744 1321.764893 1326.877808 1330.366943 1332.326416 1334.610474 1335.409668 1312.932617 1309.102173 1302.797363 1298.309814 1298.017334 1296.666748 1295.688232 1295.336670 1291.626831 1286.859131 1283.300781 1277.214111 1264.483032 1244.756470 1196.062134 1186.975098 1190.605835 1201.711182 1205.633423 1215.791382 1223.244019 1226.377563 1224.784668 1223.211914 1225.962646 1229.832397 1232.373535 1222.736206 1213.962158 1206.144287 1194.200562 1177.919800 1160.921143 1140.861816 1118.737671 1102.902466 1095.873901 1092.984009 1091.272461 1092.993896 1098.448975 1110.901611 1117.760498 1123.908203 1128.872803 1138.848389 1156.013794 1174.949951 1195.991943 1219.012573 1240.008789 1259.918457 1281.244751 1298.024902 1322.289185 0.000000 0.000000 0.000000 0.000000 0.000000
0.000000 0.000000 0.000000 0.000000 1508.313965 1529.383789 1547.300537 1564.059448 1579.195923 1589.025635 1595.364136 1595.203125 1598.125366 1593.856934 1588.425903 1583.543213 1578.949097 1577.034790 1574.781860 1566.712036 1551.718750 1531.769775 1512.948730 1488.046265 1481.730591 1474.607178 1464.382324 1449.996826 1433.714355 1422.317505 1436.729126 1424.351562 1412.301270 1402.265137 1391.542480 1382.277344 1375.754517 1366.413208 1364.553223 1364.164429 1364.486938 1365.450073 1364.373413 1360.349976 1355.739258 1351.571533 1348.265137 1345.602051 1337.062378 1335.159180 1338.208618 1336.003052 1334.495483 1335.662354 1338.747437 1341.583618 1342.556641 1343.045898 1343.631714 1345.394409 1350.131470 1356.985107 1365.247925 1373.349243 1381.467773 1378.693726 1367.247192 1359.702393 1347.425903 1333.788940 1319.583252 1303.825562 1292.065186 1290.599121 1292.849243 1295.193237 1301.338501 1317.078735 1312.157227 1300.035400 1291.557617 1285.652832 1281.966064 1282.203369 1273.676880 1271.760010 1268.966675 1266.286499 1267.060303 1271.820435 1276.252686 1274.392334 1277.371460 1285.151245 646.855591 649.576538 1299.834717 1296.565674 1294.311157 1295.090088 1296.819824 1287.993042 1293.495850 1301.797119 1307.431030 1301.841309 1295.018677 1288.986328 1288.064941 1291.337158 1293.071167 1294.897461 1300.683350 1306.763550 1310.884277 1314.062378 1315.777344 1315.118896 1309.102173 1296.055298 1299.318115 1305.452026 1311.063965 1315.102173 1314.652100 1307.370728 1295.862305 1283.765137 1269.126465 1249.442749 1227.087646 1189.941895 1183.880981 1186.931152 1195.381592 1205.633423 1215.791382 1201.300537 1203.162964 1202.740601 1201.338501 1203.154419 1209.278687 1216.244995 1218.599365 1208.647583 1205.844727 1199.125488 1186.226685 1169.956177 1148.458740 1123.842896 1104.668091 1095.873901 1092.984009 1087.952637 1088.331055 1094.096924 1106.959106 1116.671753 1128.474243 1139.922729 1154.934326 1172.133423 1189.501465 1210.549927 1234.657593 1257.257202 1279.294067 1302.174194 1318.146118 1323.398193 0.000000 0.000000 0.000000 0.000000 0.000000
0.000000 0.000000 0.000000 0.000000 1487.614136 1506.726807 1526.755249 1548.046021 1569.160522 1583.692627 1591.373047 1598.585938 1598.125366 1593.856934 1606.352661 1606.371704 1601.634521 1596.736206 1593.200073 1586.033691 1570.737305 1551.430542 1534.837524 1521.200195 1502.111450 1493.822510 1484.724243 1471.374756 1456.505127 1446.557129 1436.729126 1424.351562 1425.502686 1416.562622 1408.009399 1399.961914 1391.184204 1380.418579 1362.925537 1358.720703 1357.426514 1357.718140 1356.907959 1354.455566 1350.675293 1346.496460 1343.525757 1341.005859 1337.062378 1335.159180 1331.277954 1332.653076 1332.887573 1333.347290 1335.223511 1337.115601 1337.204712 1336.767090 1337.522583 1340.029175 1344.074707 1346.696045 1348.236206 1351.570679 1357.201538 1367.703247 1367.247192 1359.702393 1344.681519 1335.374512 1319.702759 1299.224731 1284.810791 1281.284668 1283.185669 1286.407593 1292.174805 1302.855347 1309.866333 1297.759766 1287.480957 1281.323120 1277.547363 1275.453125 1273.676880 1263.238403 1261.362549 1259.905273 1261.709106 1265.459595 1266.506104 1265.338745 1267.857544 1274.472168 1280.683594 1284.116943 1281.603638 1277.195801 1277.007446 1279.858032 1283.745605 1287.993042 1293.495850 642.113647 644.135864 1285.609985 1281.375244 1275.375122 1270.932861 1270.286743 1269.492432 1269.207031 1273.148315 1278.826172 1284.467773 1288.902710 1291.329712 1292.286499 1293.619507 1296.055298 1299.318115 1297.996948 1305.769653 1312.121094 1314.159424 1308.881958 1296.098755 1278.805176 1259.265381 1236.773193 1214.111938 1196.528687 1181.416138 1181.375122 1185.586914 1191.697632 1197.182007 1201.300537 1203.162964 1177.765259 1178.144897 1179.973145 1186.376099 1193.485596 1197.157104 1195.873901 1194.048706 1189.930664 1179.465088 1164.963501 1146.837402 1125.947876 1107.537964 1096.838013 1092.025635 1087.952637 1088.331055 1092.634644 1101.204224 1125.973633 1143.392578 1160.578735 1176.499634 1189.168823 1201.710083 1217.146484 1236.191772 1256.756592 1279.093018 1303.614380 1320.277588 1324.775391 1321.912842 0.000000 0.000000 0.000000 0.000000
0.000000 0.000000 0.000000 0.000000 1475.478027 1491.161011 1511.004150 1533.923218 1555.316040 1567.093018 1572.201050 1579.629517 1598.096680 1603.115112 1606.352661 1606.371704 1604.130981 1597.277954 1592.840088 1587.434082 1577.729004 1566.906738 1557.819214 1548.326416 1538.087280 1516.154175 1505.764526 1493.512329 1480.573364 1469.502075 1454.334595 1437.710449 1425.502686 1416.562622 1425.718994 1419.566772 1411.077637 1399.915405 1387.516724 1364.998901 1358.562256 1354.803467 1351.637451 1348.364990 1344.644165 1341.140869 1339.745605 1337.414185 1332.396484 1330.164429 1331.277954 1332.209473 1328.890869 1330.027222 1331.681763 1331.760498 1330.316895 1329.982544 1330.810181 1331.825317 1333.313232 1333.853149 1331.835571 1330.957153 1334.661743 1340.856689 1350.433472 1349.580933 1344.681519 1328.256714 1314.327881 1294.737183 1280.007690 1274.189819 1275.375854 1279.652222 1285.570312 1294.234619 1301.266113 1296.183472 1287.004517 1280.263550 1275.158081 1269.828735 1265.657837 1263.238403 1261.362549 1254.236572 1255.434692 1258.043213 1259.265015 1258.449951 1257.273315 1261.897339 1265.903809 1269.489014 1267.260254 1263.625122 1265.029175 1269.572021 1274.624146 1278.408081 1280.746826 1284.227295 1288.271729 1265.213989 1263.769897 1261.318726 1258.686279 1255.628540 1251.890625 624.894226 625.701233 1255.605835 1261.362793 1266.823364 1268.830322 1268.469360 1270.225464 1273.799438 1287.788086 1297.996948 1305.769653 1295.864746 1296.800659 1290.919067 1279.497192 1266.237061 1251.379395 1232.154663 1212.189209 1197.277954 1187.011597 1174.861328 1174.829834 1177.575928 1178.332397 1177.412964 1177.018921 1177.765259 1178.144897 1161.330811 1166.082031 1170.721191 1174.014038 1175.404785 1175.299072 1173.139038 1164.248901 1149.737915 1134.093384 1119.551025 1105.670898 1095.148315 1088.824219 1084.590820 1085.601929 1092.634644 1101.204224 1110.668213 1144.699951 1162.756470 1178.846558 1189.605469 1198.528687 1211.848267 1229.412964 1248.814819 1269.539062 1292.202881 1308.733521 1313.619873 1310.074951 0.000000 0.000000 0.000000 0.000000
0.000000 0.000000 0.000000 0.000000 1465.673462 1479.450317 1498.339722 1517.557373 1532.610229 1540.555298 1546.234985 1555.458984 1570.623535 1602.853516 1612.179199 1611.773560 1604.130981 1597.277954 1578.675293 1575.362061 1575.108154 1573.815186 1569.778687 1562.019653 1552.335693 1542.764893 1525.470825 1516.663818 1504.850830 1491.710449 1475.112305 1458.722412 1444.641846 1433.070801 1425.718994 1419.566772 1431.266602 1421.155151 1409.708008 1397.013672 1373.171631 1363.326660 1355.033081 1349.954224 1346.574829 1342.703735 1338.898926 1334.269897 1329.754150 1327.830566 1328.081421 1328.201782 1328.171631 1330.027222 1325.892212 1324.315308 1322.860107 1323.031738 1322.629883 1321.213745 1320.460693 1320.489258 1318.657471 1316.327026 1317.770996 1321.431274 1325.751831 1332.028442 1332.829102 1328.256714 1314.327881 1293.072144 1279.530029 1271.149170 1270.953125 1275.142700 1279.514404 1283.733032 1287.416138 1291.508789 1290.067017 1283.690430 1275.621826 1267.669922 1261.194092 1256.930176 1254.983154 1254.236572 1255.434692 1253.594604 1256.934448 1256.495850 1253.774902 1251.153809 1252.013062 1254.365845 1252.380981 1250.540771 1254.292847 1260.586182 1266.150024 1268.523315 1267.053589 1264.321533 1264.040405 1265.213989 1265.031372 1245.483887 1245.689331 1241.806152 1236.268311 1233.693481 1235.649292 1239.076416 1243.166504 1246.234375 1246.031372 1245.619507 1246.692505 624.753723 628.102234 1281.781616 1290.135132 1295.864746 1296.800659 1265.883545 1259.267212 1252.950439 1243.200195 1228.519897 1212.684692 1198.839600 1185.310547 1173.999268 1165.730469 1164.648560 1162.504150 1159.996582 1158.209717 1157.419800 1158.668457 1161.330811 1166.082031 1149.178711 1152.378296 1153.753906 1153.083618 1153.451538 1143.318481 1128.905884 1116.277832 1107.691040 1099.133667 1090.897949 1084.380737 1080.752686 1081.960693 1088.504883 1097.994385 1110.668213 1117.688965 1149.607056 1163.821655 1174.962524 1185.439697 1200.773926 1220.385620 1240.760376 1260.794922 1279.878052 1291.487549 1293.768311 1291.395020 0.000000 0.000000 0.000000 0.000000
0.000000 0.000000 0.000000 0.000000 1457.414795 1468.334106 1484.505615 1500.174805 1511.036377 1519.208862 1529.128296 1540.242676 1555.309937 1594.246704 1607.285645 1605.656616 1595.426636 1585.947388 1578.675293 1575.362061 1568.651611 1571.215820 1567.478882 1560.253418 1551.194458 1542.642212 1536.255859 1528.259766 1521.523804 1510.642090 1497.028076 1483.402954 1467.103271 1451.056274 1442.329956 1437.850708 1431.266602 1421.155151 1428.307251 1418.906982 1410.777222 1391.194458 1378.055176 1369.520874 1362.652466 1354.652588 1344.577637 1335.281738 1330.561646 1328.187500 1326.184570 1323.978149 1322.271240 1322.625732 1325.892212 1316.209839 1315.288452 1314.925903 1313.469849 1311.947876 1311.512329 1311.664551 1310.565674 1308.010742 1306.409058 1306.232056 1308.619385 1312.332275 1318.152466 1316.696533 1307.458862 1293.072144 1279.530029 1270.383789 1268.266846 1270.230225 1271.266602 1272.221436 1274.957520 1280.262207 1284.550049 1283.169189 1276.721802 1268.300903 1260.106323 1253.462036 1250.126465 1249.550659 1250.347900 1253.594604 1256.934448 1251.773682 1247.967773 1243.027100 1239.756836 1240.410645 1238.673584 1238.844971 1243.705811 1250.547363 1256.191895 1257.264893 1254.159058 1248.894897 1244.800415 1243.454590 1243.348877 1244.014648 1245.689331 1226.248169 1220.010010 1216.073364 1218.048340 1222.612671 1225.181885 1224.694336 1221.881836 1221.226074 1222.997559 1226.229980 1232.374512 1243.153198 1264.124390 1268.651611 1270.061523 1265.883545 1259.267212 622.163635 617.658691 1221.675659 1207.448853 1194.237305 1180.061646 1169.315552 1164.243530 1154.120728 1150.515015 1149.543823 1147.939087 1144.703613 1142.984619 1143.440918 1145.840576 1149.178711 1136.169434 1134.520264 1133.223755 1133.131714 1130.339600 1109.548096 1102.631226 1100.041260 1095.977661 1089.166992 1082.902588 1079.457031 1079.269287 1083.521973 1091.564697 1102.970093 1117.688965 1134.013794 1144.149780 1156.018188 1171.290283 1190.341431 1212.610596 1235.218018 1256.970947 1273.950073 1279.753662 1277.884766 1274.521851 0.000000 0.000000 0.000000 0.000000
0.000000 0.000000 0.000000 0.000000 1453.792725 1463.519653 1477.100708 1490.578857 1499.498657 1509.617798 1525.819214 1541.890991 1557.663330 1578.019043 1605.179077 1600.115601 1587.441528 1574.173950 1563.943848 1562.552734 1568.651611 1571.215820 1556.428711 1549.792969 1542.305054 1534.132935 1526.441650 1522.536255 1521.667725 1517.717285 1508.689209 1497.113403 1482.886719 1468.068359 1459.864746 1455.779419 1448.232300 1437.763794 1428.307251 1418.906982 1431.837402 1421.715454 1409.952881 1398.542358 1386.218628 1373.741943 1359.909058 1347.649170 1340.065918 1334.529175 1329.239136 1324.161865 1320.150391 1318.740356 1319.025146 1316.209839 1315.288452 1309.403809 1307.457642 1306.492920 1306.148315 1305.898438 1304.586304 1302.004639 1298.388062 1295.816772 1296.840454 1299.802612 1301.705933 1301.002441 1298.451050 1291.600952 1280.092773 1270.383789 1268.266846 1262.504517 1261.843384 1262.738525 1264.853760 1267.585327 1269.765381 1271.221558 1270.048462 1264.218994 1256.209351 1247.881348 1242.883057 1242.536865 1243.938477 1246.944702 1251.226440 1251.773682 1247.967773 1235.189209 1232.407715 1231.182495 1231.624634 1232.741089 1234.018555 1237.631226 1242.750244 1244.556030 1242.377075 1237.174683 1231.858765 1229.066162 1228.980469 1230.458618 1232.264771 1226.248169 1220.010010 1201.611206 1200.685425 1204.811035 1207.636108 1206.674683 1202.190308 1199.407104 1200.949219 1204.770386 1209.551758 1216.999390 1226.838745 1240.555908 1244.788330 1247.334229 1247.848267 1244.327271 1235.317383 1213.766479 1200.348633 1188.464233 1177.782471 1169.955200 1164.943481 578.816223 572.828674 1145.955200 1145.161011 1140.141479 1134.712158 1132.451782 1133.061279 1135.212646 1136.169434 1134.520264 1120.284424 1118.863770 1116.185669 1110.214233 1102.756958 1103.790894 1101.613159 1093.542358 1085.142456 1080.557983 1079.066650 1080.775757 1085.133667 1092.065674 1103.500244 1118.358398 1132.388184 1156.018188 1162.311401 1184.278198 1207.886841 1231.841064 1254.818115 1271.119751 1275.362549 1270.168945 1259.623413 0.000000 0.000000 0.000000 0.000000
0.000000 0.000000 0.000000 0.000000 1453.792725 1463.519653 1476.656250 1489.012451 1498.362305 1510.490601 1529.189331 1549.083252 1568.195923 1588.817261 1603.948608 1595.036743 1578.000244 1561.477905 1550.644653 1549.515259 1556.173828 1559.638428 1556.428711 1549.792969 1530.264771 1522.389282 1513.205444 1508.095337 1508.469849 1511.059937 1506.179077 1495.775024 1483.069214 1472.622803 1466.603271 1460.996338 1451.716187 1442.289917 1436.276245 1432.674438 1431.837402 1436.934082 1428.164673 1419.072021 1407.670166 1394.957520 1380.743286 1367.173462 1355.719360 1344.737183 1335.423340 1327.782227 1320.735107 1316.241089 1314.061035 1312.556152 1311.316772 1309.403809 1307.457642 1302.676025 1302.150024 1300.648193 1297.649414 1294.049927 1290.495483 1288.215820 1286.988403 1286.351685 1285.279907 1285.097534 1287.657349 1284.653320 1274.803589 1266.571533 1263.616455 1262.504517 1261.843384 1255.220337 1255.181274 1255.241577 1255.852661 1256.458618 1256.929199 1254.539673 1249.278687 1241.268066 1235.174561 1233.603516 1234.486938 1236.530273 1240.020996 1240.892700 1238.288330 1235.189209 1232.407715 1223.906250 1226.721558 1227.612427 1225.088013 1224.753784 1228.703491 1231.506470 1230.089966 1225.409302 1220.487793 1218.519653 1218.759766 1219.098755 1219.392090 1217.755493 1207.543701 1201.611206 1200.685425 1190.187378 1191.769287 1190.739014 1187.788452 1185.462646 1185.192993 1188.182129 1193.232422 1200.024414 1206.592407 1216.263672 1220.475952 1224.155273 1229.409790 1231.066650 1225.364380 1213.766479 1195.937988 1186.537354 1178.774658 1172.733521 1166.692383 1158.959473 1152.774902 1150.261108 1149.864868 1145.435303 1139.470825 1136.318481 1135.089722 566.767883 564.881287 1123.940063 1120.284424 1118.863770 1115.090454 1111.792725 1111.807495 1114.634766 1111.998657 1101.865845 1089.819336 1082.479614 1079.549927 1077.919922 1077.639771 1079.988525 1088.243408 1101.657349 1115.280029 1128.481445 1162.311401 1184.278198 1202.584595 1225.640869 1248.612793 1266.010620 1271.078003 1261.613647 1243.159180 0.000000 0.000000 0.000000 0.000000
0.000000 0.000000 0.000000 0.000000 1452.454468 1463.594849 1476.656250 1489.012451 1501.847168 1517.669067 1535.728882 1553.818115 1572.082153 1587.501831 1597.237061 1596.915527 1565.592651 1547.751221 1537.903564 1536.455200 1540.571045 1544.336060 1542.906738 1537.049316 1530.264771 1508.734497 1500.858887 1495.979736 1495.828613 1497.329346 1492.787109 1483.421875 1470.688599 1461.956299 1457.348755 1450.862183 1441.837891 1434.205688 1431.016479 1432.042114 1435.298340 1436.934082 1434.135132 1422.481445 1418.038208 1409.132080 1396.024780 1382.035522 1369.021606 1355.284668 1341.528564 1330.450073 1320.992310 1313.373169 1309.957520 1308.476562 1307.875854 1305.418945 1303.574463 1302.676025 1302.150024 1296.190430 1292.351807 1288.234985 1286.291138 1283.795654 1278.944580 1274.328369 1271.781982 1271.335693 1274.965088 1271.391357 1263.475464 1258.544312 1257.348999 1255.718506 1254.839600 1255.220337 1255.181274 1244.914673 1244.322266 1242.231689 1240.817871 1240.951538 1240.122314 1233.810303 1228.028687 1225.632446 1227.014404 1229.258301 1230.493774 1230.586426 1229.412231 1228.113892 1225.865234 1223.906250 1224.368042 1219.056763 1216.077637 1214.632690 1216.781738 1218.195312 1216.557495 1212.623657 1209.307983 1208.242188 1207.798096 1207.045898 1206.792480 1205.290039 1202.070435 1193.032227 1189.263794 1190.187378 1191.769287 1178.499023 1176.500366 1175.336670 1174.955566 1177.650757 1183.033569 1187.798828 1189.487671 1189.771606 1195.610229 1199.007324 1205.247070 1211.110352 1211.511841 1205.627808 1195.937988 1186.537354 1179.903687 1174.908325 1169.653198 1165.016968 1162.942017 1161.920654 1162.115845 1160.667236 1156.139038 1151.530151 1146.820557 1141.306763 1133.669189 1124.776367 1119.004028 1116.828491 1115.090454 1111.792725 1123.488647 562.819214 559.710144 1105.954346 1091.332275 1081.770630 1076.174805 1071.738403 1069.042114 1070.034302 1076.997314 1088.568604 1102.698608 1118.419678 1135.792725 1179.117798 1202.584595 1225.640869 1238.451416 1254.223389 1258.140137 1246.964722 1228.276611 0.000000 0.000000 0.000000 0.000000
0.000000 0.000000 0.000000 0.000000 1450.040039 1460.524780 1473.318970 1487.894897 1501.847168 1517.669067 1539.000977 1553.154541 1566.316895 1575.955322 1580.943848 1579.661133 1569.792480 1537.680298 1526.568481 1523.826050 1528.514160 1532.826172 1531.040771 1524.613892 1516.433838 1508.734497 1500.858887 1484.707764 1484.183228 1482.078003 1478.372803 1464.396606 1453.306152 1445.888184 1443.213257 1438.020996 1429.901123 1423.454712 1420.641724 1421.124268 1423.188232 1425.893677 1426.733276 1424.908691 1418.038208 1412.367310 1402.988647 1391.937866 1380.765381 1368.131836 1353.653320 1340.898804 1329.605591 1319.881348 1314.161133 1309.735474 1305.929565 1302.668945 1296.706787 1296.961304 1297.279785 1296.190430 1292.351807 1284.405396 1283.473633 1279.601685 1272.189087 1266.603638 1264.292358 1262.760742 1261.971069 1259.222412 1254.286255 1251.763794 1251.344849 1250.715210 1250.039429 1248.580444 1245.922363 1244.914673 1244.322266 1231.175781 1227.953735 1226.682251 1227.388672 1224.596924 1221.428345 1220.903320 1222.606201 1223.673462 1223.658203 1223.562744 1222.522827 1221.529419 1219.975342 1218.106079 1218.077393 1219.100830 1216.077637 1206.929565 1207.485840 1206.673340 1205.166138 1202.017334 1199.962402 1199.937378 1199.377197 1198.435913 1197.108276 1194.806641 1192.426636 1189.790894 1181.345703 1180.503418 1180.322021 1178.499023 1168.239380 1167.490845 1167.950317 1169.779053 1173.085205 1173.894165 1170.967407 1168.272217 1168.993408 1178.556274 1182.619629 1186.730103 1191.048218 1191.856079 1189.156738 1185.109131 1179.903687 1174.908325 1169.931763 1167.922363 1167.473389 1167.895508 1169.373169 1173.688110 1170.789673 1167.858276 1164.009155 1157.895752 1150.026001 1141.604614 1134.371704 1129.981689 1127.376099 1124.484009 1123.488647 1125.218994 1123.754028 1105.515137 1089.304565 1077.992188 1069.846191 1064.647583 1062.270386 531.961121 534.860413 1078.230347 1090.875244 1107.851196 1126.653198 1146.788818 1193.230103 1217.018555 1238.451416 1254.223389 1240.841187 1229.847168 1214.444092 0.000000 0.000000 0.000000 0.000000
0.000000 0.000000 0.000000 0.000000 0.000000 1453.799927 1465.287109 1481.816528 1501.438599 1521.309814 1539.000977 1544.190674 1552.159668 1556.266479 1558.057495 1557.657227 1553.165161 1542.041260 1514.945801 1511.336548 1515.511475 1519.733032 1517.835205 1510.031006 1501.007324 1493.463257 1487.227173 1484.707764 1484.183228 1463.698730 1459.161743 1452.949585 1438.148193 1434.384644 1433.901978 1430.875610 1424.201538 1417.554199 1413.062378 1410.892700 1410.359741 1410.900513 1410.749146 1411.278442 1414.430420 1412.367310 1402.988647 1396.610229 1389.342529 1379.110962 1367.940063 1358.300903 1349.387695 1340.139648 1331.779785 1323.768555 1315.379517 1306.670166 1297.472534 1291.056519 1291.006104 1290.693848 1287.305786 1284.405396 1283.473633 1273.195435 1266.600952 1262.319214 1260.759888 1257.880493 1254.469116 1253.659424 1248.455322 1245.664795 1244.532104 1245.244995 1245.626343 1243.405151 1239.521484 1237.431274 1235.163574 1231.175781 1227.953735 1218.822388 1217.034302 1216.685425 1215.900757 1216.393921 1216.478027 1217.043823 1217.931641 1217.800415 1217.197510 1216.209351 1214.240479 1211.831177 1210.514404 1209.269287 1208.324829 1206.929565 1200.412109 1199.337524 1197.690796 1194.052368 1192.173950 1192.800781 1192.754761 1191.644897 1188.704956 1185.885132 1183.433472 1179.817139 1176.062378 1174.344360 1174.368286 1171.714600 1168.239380 1167.490845 1162.052490 1160.061279 1159.687866 1159.264526 1155.752075 1151.557251 1151.167236 1155.059814 1160.226929 1163.002319 1168.680908 1172.721924 1174.248779 1174.962769 1173.498413 1171.633545 1169.931763 1167.922363 1158.535278 1161.722778 1166.888672 1173.149658 1175.960938 1178.801880 1180.931519 1178.061890 1173.037231 1166.666260 1157.544067 1149.994507 1146.832397 1145.194458 1144.698364 1142.930786 1136.641479 1105.515137 1091.386353 1078.914429 1070.147583 1063.025757 1058.621704 1059.734009 1064.064575 1069.758179 1079.440063 1095.341919 1113.999146 1133.761108 1156.889404 1208.252686 613.887390 619.866272 1240.841187 1229.847168 1197.411743 0.000000 0.000000 0.000000 0.000000
0.000000 0.000000 0.000000 0.000000 0.000000 1448.022705 1458.131714 1474.483521 1495.510376 1515.765625 1532.369995 1544.190674 1552.159668 1535.164185 1534.828125 1536.042603 1536.524902 1530.821045 1518.622803 1501.949463 1501.262573 1504.037964 1502.839600 1495.332764 1487.446655 1480.182617 1473.545776 1470.152100 1467.437866 1463.698730 1459.161743 1442.684814 1435.776489 1434.775146 1433.628418 1432.029053 1427.366211 1419.939819 1413.642334 1409.874390 1408.142822 1405.353394 1401.294067 1400.670532 1404.769165 1408.940186 1401.819336 1396.610229 1389.342529 1379.488892 1371.874634 1366.517578 1362.019409 1355.195190 1348.456543 1342.108643 1333.003174 1322.599487 1312.370850 1302.832520 1289.891357 1285.023315 1280.735352 1278.230225 1277.033813 1273.195435 1266.600952 1265.056152 1265.044800 1261.733643 1255.795654 1252.475098 1250.087769 1241.913574 1240.411743 1241.416748 1242.162598 1240.150146 1235.727539 1232.113403 1228.889526 1224.860352 1221.445435 1218.822388 1217.034302 1210.572388 1209.649780 1208.147583 1207.825684 1209.525269 1211.108154 1211.110107 1211.019897 1209.809204 1206.591919 1203.473389 1201.484131 1200.052002 1199.261597 1199.491577 1200.412109 1199.337524 1190.576050 1186.235352 1184.755859 1185.521851 1186.134521 1185.044800 1181.380005 1177.827393 1174.773071 1171.121460 1168.675171 1169.369751 1169.023682 1165.783569 1162.298584 1162.170410 1162.052490 1160.061279 1146.930908 1146.637939 1144.640259 1140.661133 1139.486206 1141.770020 1142.867432 1143.161499 1147.315918 1151.439209 1153.525757 1155.388794 1156.609985 1157.898438 1158.635498 1157.822144 1158.535278 1161.722778 1153.384277 1161.458374 1168.015015 1181.604614 1188.064331 1188.650146 1186.118530 1180.439209 1171.629639 1164.864502 1162.510254 1161.554321 1160.119751 1155.265747 1144.783081 1128.584473 1091.386353 1078.914429 1077.321411 1067.199219 1058.876587 1057.050781 1060.005615 1064.072388 1071.302856 1084.313965 1100.813354 1119.831055 1144.634766 1173.001099 1217.885498 1227.324951 1225.511230 1212.987671 1197.411743 0.000000 0.000000 0.000000 0.000000
0.000000 0.000000 0.000000 0.000000 0.000000 1434.839600 1455.519165 1471.350830 1490.242676 753.624939 760.659851 1531.279785 1535.244263 1535.164185 1534.828125 1519.703125 1521.564575 1519.573242 1512.508057 1503.518066 1488.060547 1487.607910 1485.703491 1480.263916 1476.230713 1470.587158 1462.069214 1455.424561 1451.369751 1449.435547 1447.126831 1442.684814 1438.091675 1443.199097 1439.862793 1437.553345 1434.852173 1428.712769 1421.020020 1415.559570 1412.079468 1405.902710 1398.337402 1394.466919 1394.656982 1394.938354 1393.023193 1391.196655 1386.896240 1379.488892 1371.874634 1361.348877 1357.509033 1352.539062 1349.576294 1346.404175 1340.281982 1333.938721 1327.232788 1318.454834 1299.235596 1289.591187 1282.762817 1279.041748 1276.670654 1272.411743 1267.089844 1265.056152 1265.044800 1275.771729 1267.947021 1262.514526 1258.455688 1252.370239 1244.604004 1245.189209 1244.988159 1241.978760 1235.945679 1230.238647 1226.212524 1222.626587 1219.586914 1216.474976 1212.907593 1210.572388 1204.212769 1200.920532 1201.352783 1203.263550 1204.042480 1203.717529 1203.781372 1202.945801 1199.391846 1196.604126 1195.491943 1193.947632 1192.671997 1192.134521 1192.593506 1193.055176 1190.576050 1186.235352 1180.063232 1180.818848 1181.444336 1179.687134 1174.856934 1171.242798 1169.012085 1165.704224 1163.381470 1164.364258 1162.094971 1158.952271 1156.576904 1155.897949 1153.510986 1149.078979 1146.930908 1146.637939 1135.543457 1133.669312 1132.232178 1132.239746 1131.129028 1128.828491 1127.599609 1130.005249 1131.883179 1134.054077 1136.772461 1138.919189 1138.909424 1138.334473 1140.321899 1145.879883 1153.384277 1161.458374 1154.013672 1163.359985 1180.820801 1182.208374 1180.732422 1176.868164 1171.881958 1169.309082 1167.954468 1165.159912 1161.073608 1154.133057 1143.631958 1130.955688 1116.216675 1087.530273 1077.321411 1067.199219 1060.436401 1056.043579 1057.401367 1060.400391 1065.781738 1077.246704 1093.446655 1113.014038 1137.731079 1164.672485 1187.818237 1211.471191 1209.280029 1195.217529 1178.853149 0.000000 0.000000 0.000000 0.000000
0.000000 0.000000 0.000000 0.000000 0.000000 1428.614502 1440.387451 1472.858398 1489.913574 1502.553467 1511.264404 1517.443726 1519.564209 1518.817993 1518.269287 1519.703125 1521.564575 1506.341675 750.792664 747.048828 1484.396729 1474.119629 1471.778320 1468.907593 1466.486572 1461.489502 1453.871826 1447.483887 1445.319214 1447.254517 1448.324341 1446.404419 1444.863770 1444.575439 1439.862793 1442.790161 1441.499634 1436.445679 1428.297241 1421.548462 1414.914429 1406.273438 1397.736816 1391.945923 1386.909546 1380.893066 1378.199341 1378.875244 1376.492065 1371.524170 1365.748779 1361.348877 1357.509033 1342.500610 1340.070557 1336.071777 1330.382935 1326.555908 1323.360596 1319.155396 1313.673218 1299.736938 1294.044556 1291.997559 1290.105347 1285.324951 1280.318604 1279.377441 1280.189209 1275.771729 1286.307861 1282.450439 1276.321289 1266.628662 1258.549805 1256.055298 1255.144287 1250.746338 1243.219238 1236.107300 1230.963379 1226.440430 1221.525269 1216.003784 1210.851196 1206.769043 1204.212769 1202.564941 1196.520264 1197.483521 1196.599731 1194.827393 1194.733887 1195.226685 1193.328003 1192.042969 1191.855347 1190.228638 1188.245605 1186.046631 1185.026123 1185.285645 1182.845459 1180.544189 1180.063232 1180.818848 1174.266235 1171.833252 1167.412109 1164.856445 1163.840698 1162.033081 1159.892578 1159.151367 1157.862305 1152.509399 1150.631958 1148.181519 1143.724365 1139.759033 1137.916626 1136.656250 1135.543457 1133.669312 1126.861450 1124.296509 1120.390503 1117.453247 1114.555176 1109.846802 1111.563354 1113.759888 1116.911865 1118.558228 1116.337036 1115.245117 1118.386353 1124.762085 1133.327026 1143.626953 1154.013672 1163.359985 1160.273315 1161.681763 1161.748291 1161.178833 1162.281616 1165.476318 1165.527954 1160.714966 1153.706177 1144.789307 1134.571045 1125.527710 1116.540894 1105.337402 1082.024170 1070.651123 1060.436401 1056.043579 1055.269775 1056.428345 1060.239502 1073.018188 1092.519775 1112.988281 1134.417969 1156.452515 1175.065186 1194.200928 1193.669189 1179.983521 1164.153076 0.000000 0.000000 0.000000 0.000000
0.000000 0.000000 0.000000 0.000000 0.000000 1425.035278 1437.476929 1454.288696 1489.195312 1500.813477 1506.139404 1506.929443 1506.110352 1505.865845 1506.649658 1508.063721 1508.554810 1506.341675 1501.585327 1481.208862 1475.107422 1470.914429 1469.018677 1466.492065 1460.872803 1454.668091 1451.139404 724.834717 725.382202 1454.264160 1456.598999 1456.130127 1453.855103 1451.813354 1449.470215 1442.790161 1441.499634 1436.381470 1430.441040 1425.409546 1419.185669 1410.446899 1402.004272 1396.229736 1390.259155 1381.929932 1375.146729 1372.014526 1369.632568 1362.255737 1357.628296 1352.547241 1347.135864 1342.500610 1340.070557 1328.211548 1319.901489 1315.106201 1313.320923 1311.267578 1308.539307 1305.200317 1297.379761 1296.527588 1296.721191 1294.648926 1292.141602 1293.018555 1294.114502 1291.026855 1286.307861 1282.450439 1286.391357 1275.731567 1266.631958 1262.855347 1260.803711 1256.869507 1250.615967 1244.514648 1238.724243 1232.030273 1223.999390 1215.664062 1209.815796 1204.917114 1200.711548 1198.721191 1196.822876 1197.483521 1189.810059 1187.223145 1185.590088 1185.634521 1185.821533 1185.813354 1185.841797 1185.190796 1182.543823 1179.051147 1176.695435 1175.903320 1175.952271 1174.481934 1174.140625 1174.341431 1174.266235 1171.833252 1161.267090 1158.814575 1157.763916 1157.940674 1156.738037 1155.020142 1152.441162 1148.958374 1144.240356 1140.569458 1135.898682 1131.935425 1129.594849 1127.839355 1127.186646 1127.425049 1126.861450 1124.296509 1110.203979 1107.081177 1103.783813 1098.043945 1095.847656 1097.125366 1096.871826 1096.281616 1094.649170 1094.555298 1098.815674 1105.388916 1113.290039 1123.154541 1133.821777 1143.820801 1153.718506 1161.681763 1137.188232 1140.745850 1146.599121 1152.774902 1153.825806 1150.368042 1144.318604 1135.960938 1126.333984 1117.936890 1108.680542 1097.950195 1087.940186 1066.900146 1058.032471 1054.792603 1055.269775 1050.852173 1054.678223 1069.036865 1090.228027 1109.788330 1127.528198 1144.818604 1161.248169 1174.742554 1181.088623 1168.286865 1152.459595 0.000000 0.000000 0.000000 0.000000
0.000000 0.000000 0.000000 0.000000 0.000000 1421.981445 1432.455200 1447.358032 1464.755371 1496.092896 1502.946045 1501.895020 1499.190186 1497.861450 1498.046143 1498.719360 1497.656372 1493.784668 1487.999390 1481.208862 1475.107422 1474.115112 1473.530640 1470.236328 1462.180298 1456.813232 1457.945312 1460.409302 1461.348511 1462.965210 1463.496460 1461.605713 1457.217651 1453.411865 1449.968750 1446.128296 720.707214 718.190735 1430.441040 1424.520996 1421.110352 1414.349487 1407.267822 1403.018921 1399.561768 1392.624512 1383.665894 1376.373047 1369.829346 1363.830444 1356.214600 1350.319458 1344.136108 1340.139648 1335.712036 1328.211548 1325.515991 1319.769775 1316.425903 1312.619263 1308.298706 1303.300293 1296.254883 1286.396484 1286.338623 1286.267212 1286.886230 1289.826294 1291.901855 1292.487183 1293.209961 1292.498657 1286.391357 1275.731567 1265.223755 1260.011963 1257.634277 1252.358521 1248.448975 1244.863159 1240.113037 1233.199463 1224.460449 1216.097534 1210.556396 1206.052246 1201.697998 1198.635254 1194.634277 1191.305176 1189.810059 1187.223145 1181.593872 1179.456665 1178.959351 1178.798706 1178.993042 1178.381836 1175.095581 1170.882690 1167.953125 1167.829956 1169.564453 1168.993896 1164.861206 1165.099365 1165.057373 1163.685425 1161.267090 1158.814575 1150.706421 1150.218140 1149.437012 1148.373901 1146.673340 1143.041748 1140.027100 1133.163818 1129.321167 1125.139526 1122.188599 1120.423462 1119.355225 1118.443970 1117.231812 1114.495483 1110.203979 1107.081177 1095.402222 1090.524414 1087.135864 1085.653564 1081.468994 1078.384644 1077.649170 1079.039307 1084.217896 1089.995117 1095.794800 1102.568237 1110.806519 1119.447266 1127.447388 1132.581177 1137.188232 1118.077759 1124.779419 1130.541992 1134.013306 1134.167847 1132.151855 1129.156250 1123.012573 1113.857056 1101.975586 1089.059204 1078.328369 1069.284790 1053.816040 1051.182739 1050.966553 1050.852173 1054.678223 1064.707031 1082.580444 1099.429199 1116.131958 1133.180420 1149.744873 1163.675903 1170.085693 1155.572754 1141.260010 0.000000 0.000000 0.000000 0.000000
0.000000 0.000000 0.000000 0.000000 0.000000 1416.439453 1424.677490 1437.412842 1454.933228 1474.304077 1499.773560 1502.240601 1501.665405 1499.941528 1497.405762 1494.774170 1491.905762 1485.990356 1479.011597 1475.708374 1475.305542 1474.115112 1473.530640 1478.840576 1471.947632 1468.866455 1469.986084 1469.891724 1468.027954 1467.957397 1466.539429 1462.362061 1457.131836 1452.501343 1448.993042 1446.010010 1442.108154 1431.374878 1427.256348 1424.520996 1421.110352 1412.279663 1407.463379 1405.020630 1403.519043 699.235535 695.374146 1383.255493 1376.003784 1369.120850 1364.989380 1355.667114 1350.967651 1348.289307 1343.268433 1334.500977 1325.515991 1319.769775 1328.891479 1322.983398 1315.990601 1307.640015 1297.312988 1288.476807 1277.502808 1273.797852 1272.580078 1274.098999 1276.025024 1277.902222 1280.796143 1283.055786 1281.069702 1273.953613 1265.223755 1260.011963 1248.166016 1245.419800 1239.513306 1237.930786 1235.900757 1231.310913 1224.231445 1217.584473 1212.923950 1208.996216 1205.019653 1200.082031 1193.149170 1187.525391 1186.234741 1184.776733 1181.593872 1179.456665 1174.849121 1173.781860 1174.059326 1173.050049 1170.251099 1166.392090 1163.395752 1163.385376 1164.817627 1163.313477 1159.635986 1157.515625 1157.712769 1157.767578 1157.008667 1153.840698 1150.706421 1150.218140 1139.990356 1139.223999 1137.725464 1134.135376 1131.070801 1128.337646 1122.542480 1118.817139 1116.369507 1115.052490 1112.641724 1108.843384 1105.655273 1103.279419 1100.745728 1098.644043 1095.402222 1090.524414 1082.380127 1080.055542 1071.442993 1066.966064 1065.427124 1067.221313 1071.568726 1073.803101 1075.996094 1081.104370 1087.739014 1095.340088 1101.693481 1104.708984 1106.595947 1118.077759 1124.779419 1106.323364 1110.869995 1114.436157 1118.274780 1120.883911 1117.764160 1108.603149 1096.444336 1083.210693 1071.489380 1062.926147 1056.201782 1046.292725 1044.998779 1044.925537 1050.368530 1064.707031 1082.580444 1087.638550 1102.938354 1122.420898 1140.323730 1150.710449 1152.692017 1149.425171 1132.880859 0.000000 0.000000 0.000000 0.000000
0.000000 0.000000 0.000000 0.000000 0.000000 1416.439453 1424.677490 1425.807739 1444.504761 1467.064087 1486.443237 1506.040527 1509.219849 1509.687378 1506.408081 1501.203735 1497.214844 1491.886108 1486.431274 1486.866455 1489.790771 1488.907227 1486.328735 1483.909668 1471.947632 1481.791626 1478.168335 1472.150879 1468.669556 1467.951660 1465.886475 1461.997681 1457.164429 1453.160034 1451.323364 1449.234619 1443.796387 1436.050537 1424.495728 1420.686279 1417.011963 1412.279663 1407.080811 1405.851440 1404.051147 1398.841553 1392.124512 1386.863892 1381.000000 1373.928101 1369.220947 1360.933838 1357.978882 1356.017456 676.076111 672.734741 1338.846313 1333.748413 1328.891479 1322.983398 1321.512573 1313.232422 1304.686279 1298.346924 1290.163452 1267.766479 1260.439819 1257.415771 1256.928101 1257.399780 1260.949219 1266.480225 1269.176758 1265.765381 1258.108276 1251.833252 1248.166016 1245.419800 1230.176147 1229.044678 1228.650024 1227.077393 1223.152588 1218.851074 1214.898315 1210.755981 1206.097412 1199.850220 1192.085693 1186.244019 1184.441650 1184.050415 1179.762939 1177.111206 1174.849121 1173.781860 1169.995239 1169.020020 1166.323975 1163.104736 1161.001587 1160.203491 1159.550537 1157.169312 1154.070679 1152.492798 1151.527466 1151.973755 1151.517456 1148.102539 1143.417114 1141.145386 1139.990356 1139.223999 1128.756714 1124.628174 1121.195801 1119.804443 1119.156616 1114.591919 1112.242065 1110.890137 1107.179810 1102.001709 1098.565430 1096.285400 1094.043335 1091.757202 1088.887573 1085.368164 1082.380127 1072.303345 1068.554565 1058.701050 1057.116577 1058.287354 1059.290161 1057.483765 1056.528564 1061.287720 1067.520386 1073.665894 1078.328491 1079.317871 1081.908691 1088.325317 1101.895752 1106.323364 1110.869995 1093.701050 1102.239380 1107.059814 1104.764404 1097.431763 1086.920898 1075.660034 1065.277344 1057.828735 1052.910645 1047.034546 1041.047119 1041.630981 1048.673828 1061.591187 1075.159424 1087.638550 1102.938354 1114.850464 1129.756714 1135.629639 1134.346191 1130.987305 1126.201050 0.000000 0.000000 0.000000 0.000000
0.000000 0.000000 0.000000 0.000000 0.000000 1408.327637 1414.396484 1425.807739 1444.504761 1454.937988 1475.736694 1492.893555 1512.021606 1515.829712 1516.182861 1513.347412 1510.532837 1508.448242 1506.853760 1507.902466 1508.406250 1505.471436 1500.839966 1494.904785 1488.516479 1481.791626 1480.694580 1472.451294 1469.212891 1468.522949 1467.000000 1463.772095 1459.744263 1456.990967 1455.313477 1452.347778 1447.327026 1440.303833 1433.143921 1420.083984 1414.861450 1410.492065 1407.080811 1405.851440 1404.679810 1398.538818 1392.575684 1388.240601 1383.211670 1376.590210 1370.822998 1366.642090 1359.169434 1357.513428 1354.549438 1349.358643 1344.253662 1340.284546 1334.682495 1327.981689 1321.512573 1313.232422 1308.211670 651.853088 647.545532 1281.528198 1255.960938 1247.112061 1241.516602 1239.464722 1243.659790 1250.814697 1255.138306 1254.050659 1248.323853 1242.774658 1239.240723 1235.778198 1232.412964 1229.044678 1218.496582 1218.807983 1218.040894 1216.442505 1213.838745 1210.297852 1205.288696 1198.805054 1191.904541 1186.458130 1183.417114 1180.924561 1178.743530 1175.501099 1172.374268 1170.131592 1169.995239 1169.020020 1161.864746 1158.859741 1157.925049 1157.427002 1155.313232 1151.266602 1148.324951 1147.393311 1146.232422 1144.661011 1142.977783 1140.340698 1136.935669 1134.288452 1132.843994 1131.338257 1128.756714 1124.628174 1115.586914 1114.632690 1115.562500 1115.413696 1108.894043 1106.373047 1102.193604 1098.068848 1095.565918 1093.064819 1089.545898 1085.643799 1081.905640 1078.123291 1074.800171 1072.303345 1068.554565 1054.214844 1052.188110 1052.184448 1050.764648 1047.120850 1045.937744 1050.114014 1054.576172 1057.361572 1059.503296 1060.596680 1063.581055 1070.515381 1078.607300 1084.292480 1087.377808 1093.701050 1102.239380 1084.080444 1082.635864 1077.608887 1070.835571 1063.989014 1056.767212 1051.573608 1049.154053 1045.140381 1040.825317 1040.358276 1047.823975 1058.925537 1070.902100 1082.345947 1096.705322 1114.850464 1129.756714 1118.053223 1115.112183 1112.870361 1113.425415 1117.755493 0.000000 0.000000 0.000000
0.000000 0.000000 0.000000 0.000000 0.000000 1400.498901 1404.899292 1415.413940 1433.041870 1454.937988 1475.736694 1475.867310 1493.983765 1513.804321 1518.550537 1519.605957 1519.193359 1520.184570 1520.225586 1517.895752 1515.001343 1511.779785 1507.216797 1500.242554 1493.711670 1490.408569 1480.694580 1472.451294 1471.969849 1471.367310 1470.477539 1467.249634 1462.713379 1458.982544 1455.810913 1452.098511 1448.654541 1444.363159 1437.331787 1429.410278 1416.054077 1411.718506 1409.480469 1408.161987 1404.679810 1398.538818 1393.530396 1388.757568 1383.416138 1376.933472 1370.535645 1365.261597 1360.475830 1354.493042 1351.349854 1346.061401 1340.972534 1337.306030 1331.180786 1324.493652 1319.707153 1313.742188 1308.211670 1303.706177 1287.366699 1276.892212 1266.191162 1243.422119 1232.219727 1226.941650 1229.953613 618.091614 620.531921 1242.015747 1239.529419 1235.732178 1231.722290 1227.421143 1223.963867 1221.744873 1218.496582 1218.807983 1207.929810 1207.958740 1207.695679 1205.721924 1202.061523 1196.493286 1191.107788 1186.390869 1181.423828 1177.161377 1174.524170 1173.354248 1169.682373 1166.635986 1165.403931 1164.485962 1161.864746 1158.859741 1153.120483 1153.773071 1151.365723 1146.093872 1143.733398 1143.557739 1143.747803 1137.502930 1134.166992 1131.786987 1129.752686 1128.180054 1127.082397 1125.424683 1123.210693 1119.472656 1115.586914 1110.354492 1109.859985 1109.015259 1106.687500 1101.473267 1097.746704 1094.231812 1091.819702 1089.233887 1085.564209 1081.855469 1077.244995 1071.826172 1068.042358 1066.103516 1062.895264 1058.185791 1052.188110 1046.799194 1044.299072 1041.185547 1040.408936 1042.977173 1046.294067 1048.291870 1049.819580 1051.372314 1053.176025 1057.004395 1062.328613 1065.559937 1068.572998 1073.830566 1080.614136 1084.080444 1082.635864 1054.043945 1050.812256 1048.070923 1045.361084 1044.390625 1044.087402 1041.027100 1036.490234 1038.100098 1045.647461 1056.307983 1069.175903 1082.979736 1097.583496 1110.033081 1116.924805 1118.053223 1115.112183 1096.305542 1102.875000 1112.964844 0.000000 0.000000 0.000000
0.000000 0.000000 0.000000 0.000000 0.000000 1391.871094 1396.605103 1405.710205 1419.362793 1436.980835 1455.728271 1475.867310 1478.203125 1496.569458 1515.221191 1517.324097 1517.945679 1519.184326 1517.514893 1512.257446 1509.188110 1508.054199 1505.486938 1499.361206 1493.234009 1490.361816 1487.245605 1475.388550 1471.969849 1471.367310 1471.480835 1468.192017 1463.395020 1458.426270 1454.174438 1450.506348 1446.835327 1442.328125 1435.446289 1428.630859 1423.774048 1413.884033 1412.118408 1410.210205 1405.949463 1399.556885 1393.530396 1388.757568 1382.956665 1375.905273 1368.884155 1362.968018 1358.063721 1353.478394 1345.205688 1339.088745 1332.482910 1326.459717 1320.219604 1315.329102 1311.885376 1307.456909 1303.178955 1296.758057 1287.366699 1276.892212 1258.924927 1250.815308 1228.118774 1221.002197 1221.285156 1225.139648 1228.901367 1230.932251 1230.807373 1228.416382 1225.103516 1222.400146 1219.570312 608.043762 605.743774 1208.549927 1207.929810 1207.958740 1200.086426 1199.011963 1196.645020 1192.689819 1188.698608 1184.175415 1178.392212 1173.952515 1171.262817 1169.566406 1167.729370 1162.460449 1160.634033 1159.836060 1157.751587 1154.251953 1153.120483 1148.616577 1146.293091 1141.500122 1139.720825 1139.564209 1138.697998 1135.966431 1128.457397 1126.001709 1124.140381 1122.856079 1122.103394 1121.706665 1120.583008 1116.825073 1112.378052 1110.354492 1109.859985 1100.060791 1099.070557 1098.420410 1093.661377 1089.562134 1086.776367 1084.937012 1082.410767 1079.195557 1074.424194 1068.711182 1064.768921 1062.967529 1060.907837 1056.625366 1051.554688 1046.799194 1044.299072 1037.664307 1036.370483 1037.363281 1040.305542 1042.917480 1044.326782 1044.793335 1045.783325 1047.597290 1050.206787 1052.540771 1053.113403 1056.224243 1057.957031 1057.812988 1056.630981 1054.043945 1050.812256 1036.517456 1036.545654 1038.182495 1038.898804 1035.144775 1031.047974 1031.565186 1042.574097 1052.470093 1065.343506 1078.867310 1091.767700 1100.003296 1101.742432 1099.996582 1096.655884 1096.305542 1102.875000 1107.435547 0.000000 0.000000 0.000000
0.000000 0.000000 0.000000 0.000000 0.000000 1377.500244 1382.283691 1390.083252 1401.504761 1416.334473 1433.382568 1455.149414 1478.203125 1496.569458 1504.231689 1512.698730 1511.806763 1511.006470 1508.272827 1503.870117 1502.288086 1502.369263 1501.020874 1495.926147 1489.724365 1486.499146 1484.284058 1481.067505 1474.085449 1472.854248 1471.480835 1468.192017 1461.875244 1457.214722 1452.224243 1447.790649 1442.272339 1435.968506 1431.081665 1426.598877 1422.542725 1418.224487 1412.392700 1410.460327 1406.535645 1400.415161 1394.617310 1389.494385 1382.956665 1375.905273 1368.510864 1362.974121 1358.371826 1352.472412 1346.257080 1331.330444 1322.635620 1313.285767 1306.801758 1302.927368 1299.636475 1296.097290 1290.672729 1281.426514 1272.143066 1265.384277 1258.924927 1250.815308 1232.327271 1218.037109 1216.248657 1216.532104 1217.160156 1218.975220 1220.322632 1220.246216 1220.007080 1220.338013 1219.230103 1214.667114 1207.929565 1202.278442 1198.200806 1198.834229 1200.086426 1199.011963 1189.811890 593.535950 592.109070 1181.311401 1177.321899 1172.629028 1168.833740 1166.548462 1164.118286 1161.567017 1157.905273 1156.013306 1153.519165 1150.013916 1148.343506 1148.616577 1146.293091 1138.291626 1135.934448 1134.715576 1133.258057 1130.526123 1127.370850 1123.363403 1121.419312 1119.161865 1117.615112 1117.466431 1116.003296 1111.781616 1107.123169 1103.683594 1101.366455 1100.060791 1099.070557 1093.272217 1093.173706 1086.190552 1083.346924 1081.098267 1078.637451 1074.904907 1070.087769 1064.829956 1061.370483 1060.119873 1058.567749 1054.119507 1048.300659 1044.462769 1039.611206 1037.664307 1036.370483 1031.792358 1034.354736 1036.593994 1037.494263 1037.421021 1038.625610 1041.385864 1042.550293 1042.582764 1042.091797 1042.206299 1040.373169 1039.331543 1039.159180 1038.720215 1037.270630 1036.517456 1036.545654 1032.543579 1032.948975 1030.333252 1028.995361 1032.095703 1035.347778 1048.347900 1059.816284 1069.835327 1078.264282 1083.415161 1084.635132 1083.821533 1083.146240 1085.536255 1094.710449 1107.435547 0.000000 0.000000 0.000000
0.000000 0.000000 0.000000 0.000000 0.000000 1361.285889 1365.057129 1372.457153 1384.340332 1399.549438 1417.217041 1438.337280 1462.574707 1486.518311 1504.231689 1512.698730 1505.083496 1502.774414 1501.184692 1498.403320 1497.375732 1497.957886 1496.806030 1492.886841 1487.149658 1483.369995 1480.706787 1476.951294 1474.129517 1470.751465 1468.221191 1465.550049 1461.875244 1457.214722 1447.165283 1442.912231 1436.536987 1430.085938 1425.768555 1420.330566 1415.046753 1412.202026 1407.598511 1405.317871 1402.255005 1398.367188 1394.026245 1389.248657 1382.954834 1375.683838 1368.510864 1362.974121 1357.497314 1351.127441 1342.836426 1334.178833 1316.139038 1307.881592 1300.982910 1295.029541 1289.695557 1283.502686 1275.040283 1266.334839 1259.715698 1255.267578 1249.717529 1241.636963 1232.327271 1223.906982 1209.254761 1207.207275 1207.403809 1208.557129 1210.155029 1211.973145 1214.215942 1217.479004 1218.369141 1213.555420 1206.924927 1200.705444 1196.014404 1192.960083 1193.038452 1191.810669 1189.811890 1179.100220 1178.319458 1177.853394 1175.032837 1170.156616 1165.611450 1162.742188 1160.370972 579.243164 578.961365 1152.871582 1149.824463 1146.781128 1144.418945 1143.676025 1142.018555 1138.291626 1135.934448 1131.023315 1130.090698 1127.874023 1125.282227 1122.898926 1119.197144 1116.051147 1112.199707 1111.031250 1109.169189 1105.042358 1100.812134 1097.161865 1095.136719 1094.164429 1092.926270 1093.272217 1093.173706 1085.441528 1078.753662 1075.245728 1072.216431 1069.028198 1065.230591 1060.958740 1057.935791 1056.573608 1054.540405 1050.741821 1046.446533 1042.560181 1038.991821 1034.200073 1031.835327 1031.792358 1034.354736 1028.777710 1029.883545 1030.430420 1031.740967 1033.439941 1031.998779 1031.601318 1032.990356 1032.592529 1029.776489 1029.079590 1029.952026 1030.746704 1031.416382 1031.673096 1031.738647 1032.543579 1032.948975 1027.988037 1029.529419 1032.627686 1033.660522 1036.213989 1055.222534 1061.025757 1064.077026 1066.348877 1068.768433 1072.402588 1077.616455 1082.948975 1089.097290 1097.612671 0.000000 0.000000 0.000000
0.000000 0.000000 0.000000 0.000000 0.000000 1349.926147 1353.659790 1361.128296 1372.835449 1388.358032 1406.447388 1427.326172 1452.408081 1479.860596 1501.570923 1509.216919 1505.083496 1502.774414 1496.187866 1494.580078 1493.582031 1494.681152 1494.095581 1490.455811 1485.336548 1481.201172 1476.625122 1471.628906 1468.454346 1466.860229 1462.159302 1461.187866 1458.019531 1452.296387 1447.165283 1442.912231 1431.337036 1425.141846 1419.697632 1413.764648 1408.942139 1406.183960 1403.372559 1396.143066 1393.883667 1391.913330 1389.179688 1385.124390 1379.340210 1372.451904 1365.713379 1361.206421 1357.497314 1351.127441 1336.502319 1328.605469 1319.833862 1306.278809 1299.047119 1291.545532 1284.079590 1275.314209 1266.034912 1258.873413 1253.526001 1249.781738 1244.113892 1234.395508 1224.966675 1218.295654 1209.254761 1198.721680 1200.472534 1201.850830 1202.700928 1204.693970 1208.823364 1213.835938 1214.961792 1210.918457 1206.111450 1201.418213 1196.229614 1191.333252 1186.542114 1184.270752 1181.406494 1179.100220 1178.319458 1171.937622 1168.618896 1164.989014 1161.246338 1157.656372 1154.846069 1153.203857 1152.973022 1149.930908 1147.173340 1144.014648 1141.085327 1140.326538 1139.314575 568.068604 566.360046 1131.023315 1130.090698 1125.024414 1123.398315 1119.857666 1116.647095 1112.005615 1107.861572 1106.536377 1104.557739 1099.846680 1095.268433 1092.873779 1092.393677 1091.382202 1089.517212 1088.842651 1088.055786 1085.441528 1082.305664 1070.168335 1068.152832 1066.019287 1062.787720 1059.046143 1056.514404 1055.145752 1053.290649 1050.894653 1047.812500 1043.178711 1037.230103 1032.489624 1026.234009 1025.670288 1027.318726 1028.777710 1029.883545 1023.515869 1024.265747 1023.834595 1021.334961 1021.639099 1024.321655 1024.344482 1022.102173 1021.238770 1024.206543 1025.737793 1027.765381 1029.136597 1029.010376 1028.581299 1028.590088 1027.988037 1029.529419 1029.500977 1030.049194 1032.565063 1039.237549 1049.513062 1050.318726 1053.428101 1059.885376 1068.386719 1077.344360 1083.186035 1084.844971 1086.338745 0.000000 0.000000 0.000000
0.000000 0.000000 0.000000 0.000000 0.000000 1343.452393 1347.336182 1353.894043 1364.666504 1379.119019 1395.979736 1419.177246 1446.206421 1472.212036 1493.310059 1503.464966 1503.618042 1496.955688 1496.187866 1494.580078 1489.904541 1491.498657 1491.201172 1486.191406 1479.868774 1475.550171 1471.134888 1466.897949 1464.014771 1460.824951 1457.186157 1455.183594 1450.655396 1443.667114 1439.515015 1436.786377 1431.337036 1425.141846 1418.375977 1413.034912 1408.662842 1404.746460 1401.233154 1396.654663 1386.948853 1382.156860 1378.259521 1374.224243 1368.638916 1362.292603 1356.551392 1353.063599 1349.881836 1343.959717 1336.502319 1328.605469 1311.426147 1305.291260 1293.471802 1286.221191 1278.078125 1270.274902 1263.454712 1257.715576 1252.299683 1248.059326 1242.157104 1231.532104 1221.877930 1215.178223 1208.064941 1198.721680 1200.472534 1197.115845 1198.299805 1200.705933 1205.939941 1211.159668 1212.453613 1209.050903 1203.963745 1199.036255 1193.775757 1188.466431 1185.356567 1180.474121 1176.270142 1173.494995 1173.001831 1171.937622 1168.618896 1161.193970 1158.084106 1154.513550 1151.839478 1149.892212 1148.945801 1148.685669 1145.227661 1142.052856 1139.575684 1138.742188 1137.246826 1134.055176 1130.031006 1127.766357 1126.487549 1125.024414 1123.398315 1116.726440 1112.730469 555.188904 552.620422 1103.838013 1101.279663 1096.418945 1091.821411 1090.153320 1089.986694 1089.030518 1086.889771 1084.501953 1083.261230 1081.214111 1077.475952 1070.168335 1068.152832 1065.103516 1061.966797 1058.924561 1057.521240 1056.236084 1054.068359 1051.338989 1047.309692 1041.951660 1035.457275 1029.739136 1026.254517 1023.429016 1022.278259 1021.780518 1022.707153 1023.515869 1024.265747 1016.156372 1014.244202 1014.578857 1016.322021 1016.649719 1017.167480 1018.686279 1021.978943 1023.728333 1026.044556 1027.578613 1027.305176 1026.063110 1025.529053 1026.130493 1027.844849 1029.500977 1026.124146 1027.979980 1031.045654 1034.030884 1042.432007 1048.701050 1057.029419 1066.101685 1074.592651 1079.126831 1079.017456 1077.316772 0.000000 0.000000 0.000000
0.000000 0.000000 0.000000 0.000000 0.000000 1338.335938 1341.206177 1345.737915 1355.005737 1368.188110 1386.059570 1412.072021 1438.283813 1460.741943 1481.569702 1496.559692 1501.089111 1497.632446 1491.919189 1490.409790 1489.904541 1491.498657 1484.085571 1477.604126 1470.736938 1468.438354 1466.770386 1464.633057 1461.591187 1456.541382 1451.219238 1449.130615 1443.678101 1439.087036 1436.564575 1435.198730 1431.330322 1424.913696 1418.375977 1413.034912 1406.703003 1402.941528 1400.659058 1397.147095 1391.557495 1372.576172 1364.047363 1357.955811 1352.886353 1347.988647 1343.952881 1341.378174 1338.122192 1332.801758 1326.928955 1319.610718 1311.426147 1296.061401 1291.148560 1279.164795 1270.427246 1262.995117 1258.307983 1254.402710 1249.393066 1244.416992 1237.960449 1228.773804 1220.833862 1214.026123 1204.162720 1194.327148 1194.583862 1197.115845 1198.299805 1199.416138 1205.200562 1209.966675 1210.823364 1207.304199 1200.908936 1194.634399 1188.863525 1185.260254 1184.691895 1183.890503 1177.204224 1174.980957 1173.070068 1169.317749 1164.570312 1161.193970 1158.084106 1157.535522 1153.653687 1148.673950 1145.975586 1145.673584 1145.379517 1140.440918 1137.976807 1137.112549 1135.507690 1132.210205 1127.985718 1125.055542 1123.342163 1122.516846 1120.938599 1116.726440 1112.730469 1106.820557 1105.420166 1101.071655 1098.097412 1094.364380 1090.755615 1088.557251 1087.458618 543.041626 541.956055 1081.465210 1080.154053 1077.603394 1073.839478 1070.563110 1067.109863 1065.103516 1061.966797 1058.245117 1056.911133 1054.564575 1051.086548 1045.980469 1040.343262 1036.185303 1032.231812 1027.844360 1024.932373 1024.136841 1020.569214 1018.639038 1018.452576 1018.262573 1017.530396 1016.156372 1008.763916 1008.518066 1009.171387 1010.140381 1012.581848 1016.015747 1019.360535 1021.538635 1022.804871 1023.315918 1023.046204 1022.704895 1022.617188 1023.730835 1024.878418 1025.484131 1026.124146 1027.979980 1023.154419 1025.063232 1030.616089 1045.922974 1053.261597 1060.353516 1066.823853 1069.552490 1068.055664 1067.216064 0.000000 0.000000 0.000000
0.000000 0.000000 0.000000 0.000000 0.000000 0.000000 1333.603882 1337.545776 1345.725952 1357.106567 1374.906494 1400.752563 1425.831909 1448.087158 1471.133301 1488.495972 1494.057617 1490.560303 1485.077759 1481.216797 1481.693237 1484.072998 1484.085571 1477.604126 1465.852783 1464.764771 1464.315063 1462.761108 1458.114136 1451.882812 1446.760254 1443.900513 1441.613525 1439.069458 1437.166016 1434.845093 1430.662720 1424.799561 1418.903442 1412.640625 1406.703003 1402.941528 1397.254883 1393.588745 1387.451294 1377.728394 1352.358398 1344.429810 1338.628296 1333.732910 1330.244141 1328.552002 1326.342041 1321.935669 1316.524536 1309.173706 1301.542114 1296.061401 1291.148560 1278.804077 1264.565918 1256.458862 1250.955688 1246.831055 1241.471191 1236.086792 1230.465942 1224.532349 1218.527100 1211.947144 1202.578979 1192.760254 1189.103149 1193.329956 1195.857788 1199.416138 1205.200562 1205.362427 1205.119263 1201.082764 1195.333862 1189.499878 1184.416016 1182.419556 1183.147949 1183.021851 1181.439209 1179.551025 1177.636597 1172.177734 1165.544556 1161.809448 1160.040649 1157.535522 1153.653687 1148.461548 1143.064453 1141.651123 1141.385254 1140.051514 1134.778320 1133.550415 1132.671631 1130.423706 1126.543701 1123.361328 1121.398560 1120.000854 1117.955444 1114.085938 1109.781372 1106.820557 1105.420166 1102.939575 1095.988892 1093.092529 1090.579224 1087.160278 1084.352051 1082.521606 1081.059937 1079.490723 1076.506104 1073.022705 1070.453979 1068.870483 1067.843262 1062.971191 530.060425 529.122559 1056.911133 1049.071533 1044.749512 1039.305054 1034.558716 1032.070557 1029.530518 1026.415894 1024.002563 1022.296143 1020.489685 1016.843018 1016.419250 1015.492798 1013.579224 1011.124756 1008.763916 1008.518066 1004.082520 1006.642334 1009.614563 1012.849182 1017.040222 1018.464417 1016.942566 1017.442749 1018.403198 1019.845825 1020.836853 1021.427734 1021.904480 1021.800110 1021.793030 1022.418091 1023.154419 1025.063232 1025.125977 1031.097046 1045.582275 1051.445190 1055.073486 1056.196411 1056.929199 1061.058838 0.000000 0.000000 0.000000
0.000000 0.000000 0.000000 0.000000 0.000000 0.000000 1333.603882 1337.545776 1339.911377 1348.215332 1362.836182 1386.444458 1412.044800 1437.327881 1461.855591 1478.043823 1480.382446 1473.209106 1465.494629 1462.570557 1465.881592 1467.509521 1469.631348 1468.447754 1465.852783 1464.764771 1459.785034 1456.461060 1451.205688 1445.182007 1441.860962 1440.015015 1437.256836 1435.382080 1432.229980 1427.589600 1423.025757 1418.903442 1414.436768 1408.382202 1402.749390 1399.629028 1397.254883 1384.619751 1377.367432 1368.123291 1357.008301 1338.710083 1331.237183 1323.193359 1318.168823 1316.734497 1315.669922 1312.971558 1308.350220 1300.763428 1293.587891 1288.621094 1283.776855 1278.804077 1272.527954 1252.648926 1245.669189 1239.913086 1234.565552 1228.640991 1222.715698 1218.265137 1214.117554 1209.258911 1202.551636 1194.465576 1188.710449 1187.076538 1191.190796 1195.676636 1201.174927 1205.362427 1205.119263 1190.204224 1185.552612 1182.915894 1181.753662 1180.938599 1180.437378 1179.824341 1180.011963 1181.234863 1180.984009 1175.651001 1169.193481 1165.961426 1164.514648 1162.101929 1156.682373 1148.461548 1143.064453 1138.999878 1136.024536 1134.252075 1132.468262 1128.878662 1127.297363 1125.453003 1122.748535 1120.434814 1118.714844 1117.085083 1114.931396 1111.633789 1108.346802 1106.361572 1105.460449 1102.939575 1099.404297 1091.340576 1088.897217 1084.722534 1080.697266 1078.960815 1078.677612 1077.094849 1072.925049 1069.369629 1067.500244 1066.687134 1066.194946 1063.553345 1056.126465 1053.926025 1052.118042 1049.071533 1039.837402 1036.579956 1033.854736 1031.330078 1028.358521 512.701538 511.453796 1019.863464 1016.457764 1014.633789 1013.866272 1012.363953 1010.223450 1007.023376 1004.040161 1003.283020 1004.082520 1006.642334 1008.058472 1011.724487 1014.840393 1014.754333 1013.053772 1014.147339 1016.186829 1017.293335 1017.836060 1017.328491 1017.323181 1018.207275 1018.594055 1018.630859 1018.846558 1020.668640 1025.125977 1031.097046 1031.418213 1040.585938 1042.145874 1043.696777 1048.442627 1057.462646 0.000000 0.000000 0.000000
0.000000 0.000000 0.000000 0.000000 0.000000 0.000000 1329.107666 1333.129517 1339.911377 1348.215332 1357.868774 1380.166016 1406.109253 1433.003784 1455.537476 1466.833618 1463.496338 1451.846558 1441.604614 1438.113159 1441.409180 1448.013428 1452.431763 1457.380859 1460.825806 1461.509277 1459.785034 1449.936646 1444.930664 1438.853760 1434.904419 1433.040283 1430.333130 1427.653564 1422.152466 1418.322510 1414.597290 1410.602661 1406.671265 1403.554932 1399.928955 1395.532715 1390.429688 1384.619751 1377.367432 1359.296875 1350.993774 1342.895874 1328.814575 1319.510132 1312.060303 1307.285400 1304.479858 1303.118896 1300.324219 1294.155518 1287.713989 1282.162842 1277.320435 1272.355469 1266.326050 1252.648926 1245.669189 1234.098633 1229.472534 1222.209961 1215.177368 1211.467651 1208.587646 1204.458984 1199.057617 1192.441772 1185.691040 1182.042603 1181.348999 1186.743896 1190.965942 1193.884399 1193.768188 1190.204224 1185.552612 1175.116089 1177.528931 1178.072144 1176.511108 1175.589355 1177.843994 1181.176147 1182.495972 1177.452148 1173.397827 1169.920410 1166.414673 1162.624512 1157.622925 1150.666870 1143.831543 1138.999878 1136.024536 1130.634277 1128.536377 1127.627197 1121.326660 1118.124634 1115.777954 1114.830811 1114.806641 1114.113037 1111.902466 1109.257080 1107.296387 1106.442749 1105.006348 1101.855469 1098.060303 1094.078003 1088.897217 1081.657471 1077.981689 1076.237305 1075.943726 1073.359863 1069.166382 1066.094360 1064.246338 1063.396484 1062.374878 1059.639526 1055.438965 1049.398193 1047.042603 1043.503296 1039.837402 1036.579956 1033.005005 1029.864380 1026.787720 1024.190674 1021.128113 1017.986511 1014.938660 1013.160400 1012.918762 1009.789856 1007.058533 1004.409119 501.193481 500.544067 1001.463013 1004.336670 1008.058472 1011.724487 1012.362061 1011.659424 1009.945129 1010.012329 1014.236145 1014.635376 1013.980225 1012.925354 1013.567017 1015.721924 1016.749451 1016.213562 1015.279175 1015.576233 1019.429993 1025.130249 1031.418213 1037.348755 1032.893066 1035.190796 1040.076050 1048.342529 0.000000 0.000000 0.000000
0.000000 0.000000 0.000000 0.000000 0.000000 0.000000 1324.416382 1325.411987 1335.665161 1343.371826 1357.868774 1380.166016 1394.265625 1417.934692 1437.157837 1446.675659 1440.403442 1427.907227 1418.194092 1412.436157 1413.838257 1420.105225 1433.825928 1439.762085 1448.118896 1453.539185 1452.935913 1449.936646 1444.930664 1434.440308 1428.898315 1423.707031 1419.016602 1415.398804 1412.852661 1409.817383 1406.688232 1402.149170 1397.907227 1395.736938 1392.653320 1386.231689 1378.506592 1371.497925 1365.821411 1359.296875 1350.993774 1337.606567 1333.354126 1320.408936 1311.403198 1301.666382 1294.653809 1291.852295 1289.508667 1286.002319 1281.303345 1276.179443 1271.172852 1265.643188 1259.621704 1253.624146 1240.051270 1234.098633 1229.472534 1216.289673 1209.569702 1206.266724 1203.322876 1198.661377 1193.907471 1189.019897 1183.679077 1179.682007 1177.115234 1175.941772 1179.795166 1180.955200 1180.585693 1177.226196 1174.034790 1175.116089 1177.528931 1169.171021 1168.863892 1170.587769 1175.934082 1180.607056 1181.148315 1177.630737 1176.225220 1172.298218 1166.057739 1160.049194 1156.420898 1153.714600 1148.863770 1142.002808 1135.298218 1130.634277 1128.536377 1128.449097 1123.345459 1113.892578 1111.733887 1111.194336 1112.083252 1111.623413 1109.440186 1107.287476 1105.378174 1103.603516 1101.261597 1098.689209 1095.888306 1092.231079 1085.359619 1081.657471 1076.278198 1074.358521 1073.011963 1070.402466 1066.682983 1063.666382 1061.834595 1060.970459 1060.392212 1058.078247 1053.868774 1049.617554 1044.074707 1040.075562 1037.153564 1035.182495 1033.005005 1029.864380 1025.481689 1023.419495 1020.798279 1017.733215 1015.303833 1013.518127 1012.311768 1010.950500 1007.663330 1006.043213 1003.928101 1001.391724 1000.674438 1003.188843 1007.106445 1010.345825 1012.362061 1011.659424 1006.885986 503.736664 504.814423 1011.988892 1011.233276 1010.698547 1011.925903 1013.690125 1014.150757 1012.412476 1010.251221 1009.584229 1013.911072 1021.531189 1028.195923 1032.042480 1032.366089 1035.190796 1031.385620 1035.919189 0.000000 0.000000 0.000000
0.000000 0.000000 0.000000 0.000000 0.000000 0.000000 1321.927368 1321.631958 1323.996216 1338.578003 1352.262817 1370.690430 1394.265625 1393.646729 1410.623779 1418.483765 1411.328003 1398.896606 1389.995850 1382.700684 1380.814575 1386.244019 1396.329102 1419.143677 1432.866455 1442.563599 1445.177002 1445.265259 1440.901978 1434.440308 1428.898315 1417.006958 1411.530884 1407.812988 1403.820679 1401.113037 1395.645142 1391.137573 1386.525635 1382.517822 1378.387451 1372.452026 1366.047607 1359.966797 1355.667725 1351.507446 1344.435669 1337.606567 1333.354126 1325.407959 1311.505249 1300.705322 1291.185181 1285.036621 1280.970947 1277.464722 1272.662964 1267.201538 1261.848755 1256.959839 1251.474487 1245.417847 1239.173340 1227.455566 1223.260742 1216.289673 1209.569702 1202.951172 1200.073120 1196.421997 1192.673096 1188.897217 1184.572632 1180.329224 1175.963379 1172.921997 1172.096802 1170.727295 1168.332153 1164.787598 1163.481689 1165.598022 1168.136108 1169.171021 1168.863892 1165.142700 1173.223389 1179.061890 1179.827515 1177.821899 1176.706665 1173.519165 1166.585938 1160.138184 1158.307983 1159.269775 1157.060913 1150.057251 1141.484619 1134.849854 1131.217529 1128.449097 1124.629883 1117.462158 1112.600342 1110.985229 1109.912598 1108.538208 1106.459961 1104.953003 1103.432373 1100.385010 1096.921265 1094.572021 1093.056030 1090.255005 1085.491699 1078.917969 1076.278198 1074.358521 1072.079468 1070.011475 1066.790161 1063.608765 1061.143677 1059.905396 1060.487793 1059.218384 1054.831665 1048.878174 1044.770630 1037.830688 1034.901978 1032.979492 1030.824951 1028.089233 1025.481689 1023.419495 1022.345886 1019.098633 1015.669434 1013.469971 1011.778809 1009.586487 1008.649536 1007.470398 1004.107239 1001.314148 1000.822205 1002.684204 1005.601501 1007.884094 1009.361633 1008.571350 1006.885986 1007.473328 1007.542053 1008.970825 1009.708984 1009.717957 1010.401184 1011.027771 1010.870911 1009.527771 503.893921 503.544922 1010.161621 1016.350769 1022.403809 1025.700073 1026.130127 1026.414185 1031.385620 1035.919189 0.000000 0.000000 0.000000
0.000000 0.000000 0.000000 0.000000 0.000000 0.000000 1320.766968 1318.528687 1317.268311 1321.109009 1339.983521 1352.465698 1371.948608 1393.646729 1410.623779 1389.664429 1380.675293 1369.451416 1361.686768 1355.316650 1350.440796 1352.095337 1361.777222 1377.185425 1414.486084 1428.588257 1437.016479 1438.701416 1433.358765 1427.712646 1423.285400 1417.006958 1411.530884 1404.220215 1398.218262 1392.522705 1387.940796 1375.972656 1372.685425 1370.162964 1366.993896 1362.228516 1357.058594 1351.580322 1346.843994 1342.452148 1336.197021 1331.145020 1328.716797 1325.407959 1319.596191 1301.656616 1292.467529 1283.988037 1277.760254 1272.374512 1266.247681 1259.208740 1253.627686 1249.499756 1243.600952 1237.092896 1231.396484 1225.718506 1217.214844 1212.004395 1206.775269 1202.951172 1200.073120 1196.705322 1194.099976 1191.204346 1187.280029 1183.386597 1178.691406 1174.293457 1172.001953 1169.573853 1162.482544 1160.012939 1159.354492 1159.962524 1160.149048 1160.246826 1160.851074 1165.142700 1173.223389 1173.337769 1175.966797 1174.784302 1173.604492 1171.551392 1167.097534 1162.896851 1162.002441 1163.798584 1162.892456 1157.369629 1149.974365 1143.264160 1137.599487 1131.980713 1124.629883 1117.462158 1114.551392 1109.636230 1106.744019 1104.381958 1103.582153 1103.144287 1101.041870 1097.269043 1093.617188 1091.324829 1090.053589 1087.893555 1083.477905 1079.806274 1075.897217 1073.968140 1072.079468 1070.011475 1065.691895 1062.878418 1060.234253 1058.979736 1059.879028 1059.883667 1055.769897 1047.842285 1042.483032 1040.089478 1032.969360 1031.206177 1030.277710 1028.654419 1026.536133 1024.512207 1022.345886 1019.098633 1017.449158 1014.101685 1011.311646 1008.033813 1005.903625 1003.221497 1000.452026 999.743958 1000.670105 1001.862793 1003.729492 1005.428406 1006.301270 1005.479248 1004.310120 1005.441650 1007.542053 1008.970825 1008.934265 1008.329956 1008.414124 1008.451111 1008.913391 1009.157227 1007.916565 1006.549072 1006.708313 1008.742493 1012.602417 1016.316223 1018.474182 1019.643250 1022.067993 511.752991 0.000000 0.000000 0.000000
0.000000 0.000000 0.000000 0.000000 0.000000 0.000000 659.475281 1315.412476 1312.808838 1313.994629 1318.958374 1334.655762 1353.098022 1375.016968 1388.525879 1389.664429 1380.675293 1341.837280 1335.114380 1329.806396 1325.599731 1326.686401 1334.011108 1345.355957 1361.886353 1406.339722 1424.195923 1429.373535 1425.460815 1420.964111 1418.152832 1412.983276 1408.083374 1404.220215 1398.218262 1386.423462 1379.990967 1372.155640 1362.732788 1361.625000 1360.041504 1355.537231 1350.004883 1344.411621 1338.402710 1332.936035 1327.408447 1323.599487 1321.320435 1318.300537 1314.860962 1309.595215 1292.467529 1283.026855 1276.397583 1272.259033 1267.264282 1260.304321 1254.317993 1247.914429 1239.934204 1233.924805 1228.814331 1223.828491 1220.444824 1211.396362 1206.401489 1202.674683 1199.532959 1196.705322 1194.099976 1193.493896 1191.742432 1189.373779 1184.920776 1179.689209 1177.118530 1174.838501 1171.357056 1166.506958 1165.174805 1163.445190 1161.263306 1159.211914 1157.214111 1159.887085 1167.059204 1173.337769 1167.819092 1168.192139 1167.830933 1167.421997 1164.253174 1162.719116 1162.661743 1163.818481 1163.232788 1160.673584 1156.276245 1149.226929 1142.195435 1135.735229 1127.661011 1119.803955 1114.551392 1111.811646 1104.322144 1101.878296 1101.492188 1099.964722 1096.798706 1093.655151 1091.620117 1089.640259 1086.789551 1084.406982 1081.743286 1079.100342 1077.165161 1072.762085 1070.364746 1068.363403 1065.691895 1062.878418 1059.576416 1058.755981 1058.729614 1058.424927 1054.271362 1046.455933 1041.238037 1039.343384 1036.769165 1031.145386 1030.464233 1029.056763 1026.970825 1024.880005 1022.809265 1020.582764 1017.449158 1014.101685 1009.909790 1005.836304 1002.892090 1001.016357 997.146545 998.325500 999.979309 1000.647888 1001.395203 1002.106445 1003.118042 1003.768921 1002.949036 1003.535522 1005.691528 1007.620300 1008.934265 1008.790100 1006.016907 1006.155579 1007.748169 1008.622070 1007.300964 1005.075073 1002.700012 1001.750427 1003.580322 1007.226196 1010.848267 1012.697021 1013.119812 1012.591187 0.000000 0.000000 0.000000
0.000000 0.000000 0.000000 0.000000 0.000000 0.000000 1319.248779 1315.941162 1312.838501 1310.216675 1309.533081 1311.302734 1334.963867 1353.512207 681.659851 680.146423 1351.049072 1341.837280 1335.114380 1306.972046 1304.725952 1306.751099 1310.945435 1316.839600 1328.198242 1380.179199 1406.152222 1418.991089 1420.237915 1417.311890 1414.605713 1409.379395 1403.048950 1397.892090 1392.295776 1386.423462 1379.990967 1373.389771 1367.554443 1356.861450 1352.733765 1347.098755 1341.330444 1336.417358 1330.864258 1325.715820 1320.570923 1316.215454 1313.010620 1310.318604 1309.051270 1306.548584 1292.648804 1283.026855 1276.397583 1273.474609 1270.239136 1264.710571 1258.724243 1250.705811 1242.408081 1237.827637 1233.217529 1228.343384 1225.500244 1221.311279 1209.456055 1205.315674 1201.245239 1197.549805 1195.140381 1193.493896 1196.117065 1193.850464 1189.372314 1185.010986 1183.396240 1182.632446 1180.694946 1179.390625 1175.990845 1172.885742 1169.778198 1166.198364 1160.971802 1158.194702 1159.771729 1164.095703 1167.819092 1168.192139 1159.051147 1159.673706 1160.538086 1161.068359 1161.914062 1162.443726 1162.045166 1161.129517 1158.909180 1153.512695 1146.657593 1139.350464 1131.040771 1122.675903 1114.412476 1109.236328 1107.258667 1101.878296 1099.294678 1096.994263 1094.173828 1092.094727 1090.664795 1088.049194 1083.908691 1081.057495 1079.224731 1077.261963 1075.249023 1072.690308 1067.263550 1065.329590 1063.237305 1061.096191 1059.576416 1058.755981 1055.943848 1054.498535 1049.979614 1044.773438 1041.906128 1040.406494 1037.916870 1034.394653 1028.806030 1026.996582 1025.055542 1023.566223 1022.118652 1020.642578 1018.075867 1013.987793 1009.909790 1005.836304 1001.800049 999.863159 997.886780 997.463745 998.654541 998.119629 997.131897 996.855896 998.624695 1000.558105 1000.726562 1001.099365 1002.753296 1005.461487 1007.903870 1007.641724 1006.488892 1006.155579 1004.842407 1005.809570 1005.043640 1003.194031 1000.436768 997.998230 997.510864 999.811951 1003.417542 1005.584534 1005.555847 1004.932251 0.000000 0.000000 0.000000
0.000000 0.000000 0.000000 0.000000 0.000000 0.000000 1318.676392 1316.343018 1313.530640 1309.665894 1306.068970 1305.071655 1308.043335 1328.241089 1334.979736 1332.573608 1325.663086 1318.096191 1311.578979 1306.972046 1304.725952 1292.755371 1294.510620 649.431946 654.747681 1329.448120 1385.346069 1404.852051 1413.263184 1414.593140 1413.182617 1408.288452 1399.410034 1391.943970 1388.033936 1384.459595 1379.010376 1373.389771 1367.554443 1364.956909 1349.462891 1341.428833 1334.660767 1329.505005 1324.214844 1319.814575 1315.706177 1310.796875 1307.146606 1304.663208 1303.275513 1300.231445 1294.315308 1279.825073 1275.343506 1273.474609 1270.239136 1262.953247 1257.494141 1250.409912 1244.608643 1241.573120 1237.306396 1231.768311 1228.345215 1224.160522 1219.341919 1209.595215 1203.162231 1197.835693 1195.707642 1196.043823 1196.117065 1193.850464 1190.186523 1187.806763 1187.148193 1187.101440 1187.039673 1187.403076 1184.235596 1181.424805 1178.741089 1175.476929 1169.561523 1163.173096 1158.736816 1156.973389 1157.639038 1158.495239 1159.051147 1159.673706 1156.065430 1158.482544 1160.436279 1161.048462 1160.833740 1159.747437 1157.077881 1152.142334 1145.422241 1138.594604 1132.063354 1123.837891 1114.949707 1108.570068 1104.459473 1101.262085 1099.294678 1096.994263 1093.265991 1091.382202 1088.745117 1085.655640 1082.499512 1080.030029 1077.652344 1075.213745 1073.155884 1070.502930 1067.472290 1063.150879 1061.229492 1059.803345 1058.888672 1057.099854 1055.943848 1054.498535 1046.116821 1043.781250 1043.120605 1042.041016 1038.907349 1034.707031 1030.567383 1025.766968 1023.928284 1022.566772 1021.156982 1019.171997 1015.660095 1011.137512 1007.564087 1004.411987 1001.800049 999.863159 996.527039 994.699402 995.715149 994.889343 993.451660 992.422119 993.854492 996.202026 997.607666 998.394104 999.522461 1002.479980 1005.211731 1004.955933 1003.612427 1002.990540 1004.842407 1002.560547 1002.440674 1001.253113 998.986389 996.258728 994.442322 995.516785 997.675354 998.521362 997.612183 996.690613 997.248291 0.000000 0.000000
0.000000 0.000000 0.000000 0.000000 0.000000 0.000000 1315.329590 1313.155884 1310.583008 1308.209473 1305.199219 1303.420898 1302.723267 1304.454712 1312.577026 1311.012817 1307.829590 1303.938721 1299.651733 1296.156494 1293.213135 1292.755371 1294.510620 1288.966797 1297.475952 1314.869995 1338.451904 1388.767212 1405.413330 1413.330811 1415.076660 705.850220 701.136719 1392.989502 1387.968994 1384.616333 1380.620972 1376.748169 1371.824097 1364.956909 1357.388672 1343.801880 1337.927856 1331.154053 1323.772705 1319.702026 1316.375366 1311.005249 1306.323364 1302.798218 1299.648682 1293.739014 1285.412842 1279.265991 1272.287231 1269.259399 1266.628052 1262.953247 1252.257080 1247.160645 1243.297852 1240.954468 1236.745850 1231.517090 1227.540771 1224.587891 1221.980713 1218.086304 1203.431885 1198.638184 1197.765625 1198.329346 1197.486694 1194.163452 1190.186523 1187.806763 1189.636230 1190.006592 1190.392700 1190.327881 1189.703979 1186.939575 1184.664551 1181.424805 1176.047729 1169.730835 1162.734253 1155.821655 1151.086304 1148.425415 1148.397583 1151.812988 1156.065430 1158.482544 1156.702026 1158.774902 1156.942017 1153.671875 1148.758789 1141.785645 1134.403564 1129.612061 1125.942383 1119.244141 1111.531616 1105.446411 1100.181641 1096.396240 1095.628418 1094.825439 1093.265991 1091.382202 1086.805420 1083.578369 1081.458618 1078.839355 1075.264404 1072.729370 1071.191650 1069.093628 1066.503784 1063.523926 1059.249634 1057.873291 1056.441162 1053.567749 1051.337036 1049.411011 1046.116821 1043.781250 1042.361938 1041.239624 1037.440063 1033.151245 1029.957642 1025.317017 1022.999817 1021.273499 1019.963928 1017.850037 1013.605713 1008.468262 1005.007263 1003.048706 1001.030029 999.024963 996.527039 992.486755 992.256958 992.001404 993.232178 993.455383 993.532227 994.277283 995.358826 996.788940 998.346741 1000.126770 1000.813660 1000.196899 999.983459 1000.284912 1000.300781 1002.560547 1002.440674 999.806885 997.581421 994.900391 993.487183 993.835693 994.172180 992.855103 990.881592 989.627136 990.650818 0.000000 0.000000
0.000000 0.000000 0.000000 0.000000 0.000000 0.000000 1315.329590 1310.107300 1306.470581 1304.464844 1303.749878 1303.415161 1302.240723 1301.601562 1302.360474 1298.677490 1296.754272 1295.654785 1294.372681 1292.970459 1290.536865 1288.022827 1287.478760 1288.966797 1297.475952 1300.519531 1321.033813 1346.878540 1398.522339 1413.912598 1418.154663 1415.844971 1408.585815 1397.561768 1388.540649 1383.137817 1379.384888 1376.437134 1372.965576 683.826660 680.019348 1351.375488 1337.927856 1338.363647 1331.214966 1327.569214 1323.216187 1316.631348 1310.197632 1305.473267 1301.470093 1294.476807 1285.140503 1277.934814 1273.522339 1264.244873 1260.256470 1256.182373 1252.257080 1247.160645 1241.200562 1237.701050 1233.804443 1229.702759 1225.763794 1223.427734 1221.360596 1216.929443 1210.318726 1199.940186 1198.533569 1196.555786 1194.241333 1191.512695 1189.654419 1189.341797 1189.636230 1190.006592 1190.315430 1190.078857 1190.020874 1190.450439 1188.782104 1185.343994 1180.412476 1174.497437 1166.604492 1157.842407 1149.623901 1142.559204 1140.427002 1144.294678 1149.983765 1154.403198 1156.702026 1158.214844 1147.946045 1143.097168 1136.523926 1128.533936 1120.938843 1116.710449 1112.830688 1106.839233 1101.083862 1096.901123 1093.875488 1090.801514 1088.442749 1088.271729 1089.295044 1089.808594 1086.805420 1083.578369 1078.403931 1075.620850 1071.912109 1070.404419 1069.863037 1067.720703 1064.656738 1061.636475 1059.145630 1055.148193 1053.191040 1050.123413 1046.710449 1043.920288 1042.038940 1041.738037 1042.361938 1041.239624 1033.363525 1029.702271 1028.236938 1027.144897 1021.547913 1018.809753 1017.146240 1015.188416 1011.380737 1006.495056 1002.890076 1001.434509 999.437683 996.914185 994.371948 992.486755 992.256958 989.081055 992.551025 993.979980 993.159729 992.489807 993.518677 996.049805 997.982178 997.898132 996.887817 996.961670 998.470154 999.369629 999.288879 1000.984558 1000.946899 999.806885 997.581421 993.599548 992.612122 991.787231 990.543884 988.644531 986.739319 985.957031 985.792664 0.000000 0.000000
0.000000 0.000000 0.000000 0.000000 0.000000 0.000000 1312.844360 1310.107300 1306.470581 1302.978638 1303.670044 1305.177856 1304.144043 1302.360596 1300.610474 1297.176636 1291.165527 1290.453369 1290.274048 1289.924072 1288.713745 1286.790405 1284.495972 1281.956055 1286.444946 1300.519531 1321.033813 1329.808228 1362.624756 1409.556885 1416.328369 1414.368286 1408.120605 1397.612671 1386.740112 1379.931519 1377.338257 1376.016846 1372.049316 1365.386719 1358.103882 1352.354736 1348.556519 1338.363647 1337.208008 1332.336792 1326.232056 659.707153 656.575012 1308.195801 1304.257935 1298.925903 1291.706421 1283.197388 1275.853882 1270.632324 1260.067627 1253.385376 1249.031616 1245.114746 1241.200562 1237.701050 1228.503540 1224.793823 1221.109619 1219.001343 1217.197632 1213.870972 1208.799316 1203.406372 1194.147461 1190.483398 1187.792969 1186.111206 1186.852905 1188.403809 1189.662354 1190.214844 1190.315430 1190.078857 1188.795044 1188.772461 1189.295288 1186.571655 1182.943115 1177.704102 1169.892212 1161.080322 1151.522827 1141.555664 1136.206299 1137.609253 1142.197266 1147.522705 1150.724487 1151.338013 1150.507446 1143.097168 1124.624878 1118.564087 1111.271606 1106.405884 1101.493164 1095.492676 1092.683228 1092.978271 1093.199585 1090.397705 1085.155640 1081.247192 1082.864380 1085.118286 1083.119263 1080.158936 1078.403931 1075.620850 1068.541016 1068.128784 1068.110840 1065.815186 1062.156860 1059.197510 1057.220093 1055.226685 1052.075684 1048.289917 1044.042236 1040.532349 1038.347290 1038.402466 1038.793579 1037.218384 1033.363525 1028.022217 1026.579468 1025.190552 1023.117310 1015.869263 1013.105103 1010.759338 1007.234619 1003.596863 1001.549866 1000.979675 998.677795 995.077271 993.139343 991.708374 990.326416 989.081055 989.619995 988.897034 988.162415 988.568054 991.255188 994.936707 996.737793 995.420898 994.370728 995.554504 997.203735 997.676758 997.618347 998.209839 999.239014 998.020935 995.737183 993.599548 992.612122 989.824036 987.836487 984.893494 982.665100 981.892273 980.416016 0.000000 0.000000
0.000000 0.000000 0.000000 0.000000 0.000000 0.000000 1310.954346 1308.338013 1304.992798 1302.978638 1303.670044 1306.797363 1305.121582 1301.055420 1297.139160 1293.551025 1289.185791 1288.355347 1287.138672 1285.387695 1284.025513 1283.354492 1281.415649 1278.233521 1279.073608 1287.913208 1304.588379 1329.808228 1351.393066 1380.999390 1408.247437 1408.129395 1402.895630 1394.347778 1384.195801 1377.894165 1377.440430 1375.989014 1369.665771 1361.860962 1355.858765 1352.162598 1349.558350 1347.212769 1337.208008 1332.336792 1322.347534 1317.062256 1312.766602 1308.192627 1303.927856 1300.076538 1294.679321 1286.961182 1279.685425 637.405457 635.384216 1257.346924 1250.668457 1244.808838 1238.431885 1232.578369 1228.503540 1224.793823 1214.258301 1211.044312 1209.296021 1206.961670 1203.272339 1199.758789 1194.588745 1184.307861 1181.184448 1178.855591 1179.279541 1181.001465 1182.789673 1185.324097 1188.070435 1189.108643 1188.795044 1188.772461 1183.931763 1183.908813 1181.177124 1177.780640 1171.683594 1164.970459 1156.731812 1146.397827 1138.616699 1134.835571 1134.030640 1137.523438 1140.239990 1139.421753 1136.997925 1133.892090 1124.624878 1118.564087 1107.704956 1104.911255 1101.547607 1097.455566 1097.617065 1100.563354 1101.614868 1098.138550 1090.668091 1082.186646 1077.208008 1077.245117 1075.716064 1074.464111 1074.135864 1071.716553 1068.541016 1068.128784 1065.256958 1063.418335 1060.039185 1056.497803 1054.622925 1053.202637 1051.773926 1046.968506 1043.644653 1040.875244 1038.360352 1036.694458 1035.170532 1033.395386 1030.720703 1028.022217 1026.579468 1023.340698 1020.923523 1018.309265 1011.585754 1008.614197 1004.686096 1001.383911 1000.159058 1000.181824 998.290833 995.018616 993.124207 991.753906 989.783325 987.955322 987.895813 988.846130 988.162415 986.608765 989.020813 992.414185 993.791443 992.871033 992.255615 993.014587 994.279236 994.772095 994.702148 995.249023 995.869812 995.196960 993.449707 992.290649 991.285950 989.824036 987.836487 981.548401 979.106262 976.826965 974.924255 0.000000 0.000000
0.000000 0.000000 0.000000 0.000000 0.000000 0.000000 1308.817993 1306.983398 1305.452393 1304.366699 1305.116821 1306.797363 1305.121582 1298.393921 1293.562500 1290.425171 1288.947632 1288.549438 1285.415283 1281.932739 1280.733765 1281.415649 1280.261963 1277.406372 1275.537476 1279.189453 1291.437866 1315.721191 1351.393066 1380.999390 1390.067383 1402.036743 1398.831787 1391.444336 1382.539307 1377.492188 1377.300415 1374.912842 1368.035645 1361.795776 1357.756226 1352.895264 1347.833252 1344.905518 1335.870239 1329.151978 1322.347534 1317.062256 1312.015259 1307.839355 1302.352661 1297.527710 1292.100098 1286.340820 1281.113770 1276.118408 1271.710815 1267.501099 1254.929810 1246.199341 1236.285522 1228.714966 1224.083618 609.673096 607.129150 1211.044312 1202.382446 1198.443848 1195.699829 1193.588745 1190.228394 1183.670410 1179.185425 1174.087158 1171.571289 1171.178711 1171.838257 1175.949341 1180.171265 1182.301392 1183.067871 1183.398682 1183.931763 1183.908813 1168.607422 1169.016357 1166.613892 1163.024414 1158.432495 1151.813843 1144.020752 1135.813599 1129.843994 1129.374756 1129.530518 1127.097168 1123.402344 1119.685059 1116.500610 1112.186157 1107.704956 1104.911255 1108.026978 1107.018066 1108.067749 1108.949951 1108.143433 1105.246338 1098.356812 1087.455078 1077.911865 1072.290405 1068.049927 1069.205688 1069.598145 1067.785889 1065.604248 1065.234009 1065.256958 1061.085815 1058.575317 1054.762085 1052.374512 1051.529053 1050.024780 1047.586670 1043.117554 1041.533081 1039.734375 1036.651855 1033.404175 1031.177490 1028.688599 1026.537354 1025.393921 1023.340698 1020.923523 1017.209900 1014.160889 1008.455261 1003.936462 1000.159302 998.484436 998.169922 997.501282 995.691772 993.133362 990.799805 988.925659 987.011536 985.685608 984.857544 984.815796 986.608765 989.020813 989.771851 990.725220 990.940674 991.227051 990.865662 991.194519 991.896667 992.372620 992.768982 992.721741 992.256653 991.135681 990.591736 989.594910 987.957764 985.186646 981.548401 979.106262 974.527283 972.552979 0.000000 0.000000
0.000000 0.000000 0.000000 0.000000 0.000000 0.000000 1308.372681 1304.966309 1303.841309 1303.794189 1305.070557 1306.062500 1303.531128 1298.393921 1292.911255 1290.753662 1290.573608 1291.350586 1285.276489 1282.103882 1281.385254 1281.797485 1280.445068 1277.681885 1274.871826 1275.638672 1283.613281 1303.068237 1334.143921 1366.724609 1390.067383 1400.160156 1397.808472 1391.502686 1383.119507 1377.477783 1374.768921 1371.027710 1364.917114 1359.930664 1356.444824 1350.698975 1343.635864 1339.553467 1335.798462 1322.793457 1317.545044 1314.557983 1312.015259 1307.839355 1301.026367 1295.456177 1289.942627 1284.424805 1279.944824 1274.949829 1270.177979 1267.359741 1263.540527 1248.398682 1237.810547 1229.809082 1224.846802 1219.241577 1212.758667 1207.179199 1202.382446 1198.443848 1195.227783 1194.087158 1191.848267 595.071655 591.186768 1175.532593 1169.746216 1165.483887 1163.229248 1164.342163 1165.363037 1166.444946 1168.051758 1169.370728 1170.479736 1169.965210 1168.607422 1168.818848 1148.903076 1149.140137 1148.235840 1144.984741 1138.114136 1130.337280 1124.883423 1122.787354 1120.608032 1116.856812 1113.653442 1111.495728 1109.825317 1109.183350 1108.704224 1108.677612 1108.026978 1108.454102 1109.693726 1108.029907 1106.123047 1105.041870 1100.096313 1088.369751 1076.173218 1068.487915 1064.237793 1065.189331 1065.336914 1064.157959 1062.473877 1061.593140 1061.777832 1061.085815 1058.575317 1054.673584 1052.035767 1050.650879 1049.133057 1046.560425 1043.620117 1039.990356 1038.959595 1036.663574 1032.375732 1028.271729 1025.352417 1024.532471 1025.023560 1023.310669 1020.219543 1017.209900 1014.160889 1011.910583 1003.400208 999.007629 996.782532 996.565979 997.040588 995.790100 992.633057 989.753845 987.919312 985.451721 983.044922 982.211975 983.338074 985.842468 987.982361 989.771851 990.725220 989.934326 990.608093 989.343079 987.919617 987.712524 988.428589 989.424011 989.772217 989.130310 988.174744 988.324158 986.706482 984.507629 982.275696 980.029419 977.455139 974.527283 972.552979 0.000000 0.000000
0.000000 0.000000 0.000000 0.000000 0.000000 0.000000 1309.636719 1301.927734 1299.953247 1300.285400 1300.948364 1301.500366 1299.933716 1296.578979 1292.911255 1290.753662 1292.679932 1291.241577 1288.057129 1284.006714 1283.146484 1281.917114 1279.111694 1276.056641 1274.217529 1274.895874 1280.547119 1294.148560 1319.671143 1354.553467 1383.151001 1395.975708 1399.360229 1391.502686 1383.203369 1377.050049 1371.618774 1365.659302 1360.209229 1355.425537 1351.703735 1346.976685 1340.118896 1335.262207 1330.887451 1324.318970 1315.805420 1313.540771 1310.781372 1306.735840 1301.026367 1295.456177 1288.067505 1282.439209 1277.945312 1272.875366 1267.526489 1263.955444 1261.054199 1256.733521 1241.961060 1234.049561 1229.051880 1225.023560 1219.592041 1212.098389 1203.910400 1197.681763 1195.227783 1194.087158 1198.277954 1194.564575 1190.240234 1179.614868 1173.557129 1166.868896 1161.680664 1157.361206 1151.840942 574.373108 574.528320 1149.487915 1149.607178 1148.947144 1147.853638 1147.596680 1148.260254 1149.140137 1128.591675 1125.738037 1119.585205 1113.593140 1110.879883 1110.762207 1110.366089 1107.916626 1105.776367 1104.744385 1103.271851 1102.924072 1104.980469 1105.748657 1106.599976 1108.454102 1109.693726 1098.164185 1096.655273 1096.224365 1092.321045 1081.253662 1070.706299 1066.252808 1064.047607 1063.129761 1061.992676 1060.914185 1059.796265 1058.851196 1058.626953 1058.291138 1057.089478 1054.673584 1052.035767 1049.012085 1047.477173 1044.888550 1041.765015 1036.943848 1036.171143 1034.485718 1030.383179 1026.009888 1024.156738 1024.529297 1024.803589 1023.217163 1020.007690 1016.479004 1014.006226 1011.910583 1008.579834 997.720703 995.080505 995.574524 996.829834 996.224365 992.952576 989.410034 986.939575 983.805237 980.768372 979.965332 981.397400 984.741943 986.255737 986.486267 988.094177 989.934326 990.608093 986.992004 985.178711 984.237427 984.495728 985.705139 986.682129 986.032593 985.037476 985.165894 982.546631 981.001648 980.469177 979.304749 976.150085 972.595520 970.630737 0.000000 0.000000
0.000000 0.000000 0.000000 0.000000 0.000000 0.000000 0.000000 1306.422729 1298.926025 1295.685669 1294.667114 1295.355347 1295.786621 1295.269775 1293.752563 1293.056030 1292.679932 1291.241577 1285.364258 1285.328369 1284.181030 1281.010864 1276.385498 1272.870483 1272.247803 1274.433228 1281.090576 1294.205444 1317.667480 1349.294434 1377.257935 1392.593872 1397.908203 1397.444336 1383.203369 1377.050049 1370.203125 1363.856812 1358.864624 1354.073242 1349.351562 1344.462524 1338.891235 1334.464844 1329.407959 1322.281982 1317.027588 1312.410645 1307.588257 1303.271729 1298.269897 1293.200317 1288.067505 1282.439209 1275.648193 1270.572266 1265.053101 1260.339233 1256.808472 1254.078003 1249.792236 1237.786621 1233.744873 1230.312134 1225.020264 1218.403687 1211.763916 1206.070190 1203.039673 1201.505127 1198.277954 1194.564575 1189.661621 1184.736206 1177.264404 1171.710815 1166.256104 1159.707397 1150.418091 1143.546143 1140.169312 1137.641724 1135.360107 1132.965942 1131.026123 1128.163940 1125.251709 1126.028564 564.295837 552.290710 1100.189209 1095.873291 1094.042603 1095.073242 1096.764282 1095.574707 1093.418213 1091.892700 1090.465454 1090.080444 1090.321777 1093.842285 1095.436768 1098.140747 1099.512695 1098.164185 1096.655273 1080.564697 1077.365356 1070.090454 1064.212646 1062.956909 1062.333130 1061.612915 1060.432129 1058.430176 1058.359497 1057.309692 1055.947876 1054.713379 1053.896118 1052.751831 1050.539185 1049.012085 1047.477173 1042.019775 1038.807007 1035.719604 1033.406982 1030.799561 1028.034790 1026.342285 1025.389648 1024.147827 1022.896240 1020.934021 1017.931824 1014.944397 1012.505554 1010.962402 1008.511963 1003.404724 995.080505 994.468140 995.562134 995.163940 991.411072 987.688904 985.027466 982.246094 979.588013 978.772949 980.226074 982.650085 983.241577 981.846436 983.729858 986.830078 988.029236 986.992004 985.178711 982.567261 982.241760 983.504944 984.511169 983.365234 982.349792 982.365662 981.257629 978.468933 978.680054 977.507141 973.615723 969.509827 968.186035 0.000000 0.000000
